-44062.3158336,22816.1772107,3.48919826121,124,134,103
-44062.3142089,22816.8071589,3.4870516673,149,153,129
-44062.3125842,22817.4371071,3.49619897891,147,151,126
-44062.3109595,22818.0670552,3.50732066615,125,134,102
-44062.3093347,22818.6970038,3.44217499358,82,86,70
-44062.3077099,22819.3269522,3.41512567966,108,108,106
-44062.3060853,22819.9569,3.47697870506,144,143,140
-44062.3044604,22820.5868488,3.38983847755,95,99,107
-44062.3028359,22821.2167965,3.47612026782,98,100,96
-44061.6923846,22813.6557924,3.62311273873,162,157,145
-44061.6907598,22814.2857408,3.58559454708,165,161,150
-44061.689135,22814.9156893,3.52976004558,156,152,140
-44061.6875102,22815.5456376,3.50965635352,156,153,141
-44061.6858855,22816.175586,3.49203270967,155,153,139
-44061.6842607,22816.8055342,3.48477714953,156,155,139
-44061.682636,22817.4354824,3.49603839664,140,143,121
-44061.6810113,22818.0654305,3.50733027195,127,132,105
-44061.6793866,22818.6953787,3.51393954942,113,120,89
-44061.6777618,22819.3253271,3.47459483815,138,140,124
-44061.6761369,22819.9552758,3.40125667933,147,147,146
-44061.6745123,22820.5852238,3.43817388654,130,131,134
-44061.6728877,22821.2151717,3.48593322933,100,102,105
-44061.0624364,22813.6541677,3.61397214067,176,173,157
-44061.0608117,22814.284116,3.60777102032,176,171,159
-44061.0591869,22814.9140644,3.55772576771,168,163,152
-44061.0575621,22815.5440128,3.53762207665,169,164,152
-44061.0559373,22816.1739611,3.51512368232,162,158,145
-44061.0543125,22816.8039094,3.49261092582,163,160,148
-44061.0526878,22817.4338576,3.50062484065,151,151,134
-44061.0510632,22818.0638058,3.51170172059,137,140,117
-44061.0494384,22818.693754,3.50997246971,118,124,96
-44061.0478137,22819.3237023,3.48436101213,135,136,118
-44061.0461889,22819.9536506,3.47360658189,166,162,151
-44061.0445639,22820.5835995,3.37213381443,72,71,72
-44061.0429394,22821.2135471,3.46128522471,145,144,141
-44060.4324888,22813.6525419,3.8144675795,183,180,169
-44060.4308637,22814.2824909,3.6616568532,172,168,155
-44060.4292387,22814.9124396,3.58464126003,178,172,159
-44060.427614,22815.5423879,3.5606335843,167,162,148
-44060.4259892,22816.1723363,3.53682487116,157,153,139
-44060.4243644,22816.8022846,3.51512105377,165,161,149
-44060.4227397,22817.4322329,3.50674609082,163,161,148
-44060.421115,22818.062181,3.51782295515,149,151,131
-44060.4194902,22818.6921294,3.48435599036,120,119,100
-44060.4178655,22819.3220775,3.50417067667,160,158,144
-44060.4162407,22819.9520258,3.48539809592,152,149,139
-44060.4146159,22820.5819742,3.45396577401,120,119,108
-44060.4129911,22821.2119227,3.41815169261,113,112,104
-44059.8025409,22813.6509166,3.9133205611,179,175,164
-44059.8009161,22814.280865,3.87559510862,181,176,169
-44059.7992909,22814.9108142,3.70211573185,180,176,166
-44059.7976659,22815.540763,3.59708412397,162,157,143
-44059.7960411,22816.1707114,3.55933506208,159,154,140
-44059.7944163,22816.8006597,3.53763124404,166,162,150
-44059.7927915,22817.4306081,3.51592748985,174,170,160
-44059.7911668,22818.0605563,3.5088643505,156,154,141
-44059.789542,22818.6905046,3.49863735587,135,132,119
-44059.7879172,22819.320453,3.47500134471,132,137,119
-44059.7862925,22819.9504012,3.46797944848,154,152,143
-44059.7846678,22820.5803494,3.46652331445,129,135,114
-44059.783043,22821.2102978,3.4486988375,103,114,86
-44059.1725924,22813.6492925,3.8099599912,176,170,155
-44059.1709679,22814.2792403,3.87982407953,178,174,163
-44059.1693432,22814.9091883,3.89892677496,179,174,164
-44059.1677181,22815.5391374,3.74343548265,183,180,164
-44059.166093,22816.1690864,3.60339312276,166,161,148
-44059.1644681,22816.7990349,3.55023402807,166,161,147
-44059.1628434,22817.4289832,3.53467501907,173,169,158
-44059.1612186,22818.0589314,3.53662723315,171,167,158
-44059.159594,22818.6888795,3.55878555702,167,163,154
-44059.1579692,22819.318828,3.51719081726,172,168,159
-44059.1563443,22819.9487765,3.46578932569,172,168,160
-44059.1547196,22820.5787247,3.46391129505,147,152,131
-44059.1530948,22821.208673,3.46203332877,122,136,103
-44058.5426436,22813.647669,3.58971051073,139,128,111
-44058.5410193,22814.2776164,3.73568779597,161,155,142
-44058.539395,22814.9075638,3.87527364739,170,166,155
-44058.5377704,22815.5375118,3.89973557555,178,173,163
-44058.5361454,22816.1674605,3.81189260944,177,173,162
-44058.5345202,22816.7974097,3.63537670955,173,169,158
-44058.5328953,22817.4273581,3.59668403522,162,157,142
-44058.5312706,22818.0573064,3.58384957449,161,155,144
-44058.5296458,22818.6872549,3.5456862236,163,159,148
-44058.5280211,22819.317203,3.55093942427,173,168,156
-44058.5263962,22819.9471515,3.51673226496,177,173,161
-44058.5247713,22820.5771001,3.45609295642,175,172,161
-44058.5231466,22821.2070483,3.44922102003,152,157,136
-44057.9126953,22813.6460445,3.55238363532,160,154,140
-44057.9110708,22814.2759924,3.60753393429,141,133,120
-44057.9094467,22814.9059394,3.81909650683,154,148,137
-44057.9078221,22815.5358874,3.85001048755,173,170,158
-44057.9061975,22816.1658353,3.88523975867,181,177,167
-44057.9045727,22816.7957837,3.86061672933,179,175,166
-44057.9029474,22817.4257329,3.6845598492,167,168,152
-44057.9013223,22818.0556818,3.56374778606,128,142,105
-44057.8996976,22818.6856301,3.55678722945,154,150,138
-44057.8980729,22819.3155783,3.55092486332,170,164,155
-44057.896448,22819.9455268,3.50836324893,177,173,163
-44057.8948232,22820.5754752,3.47544021266,176,173,163
-44057.8931984,22821.2054237,3.44251724008,176,174,162
-44057.2827473,22813.6444195,3.59579897409,167,163,151
-44057.2811223,22814.2743682,3.49974948448,137,130,117
-44057.2794983,22814.9043151,3.73279732728,124,119,105
-44057.2778734,22815.5342635,3.69317901545,169,166,154
-44057.2762491,22816.164211,3.82093212971,176,171,159
-44057.2746245,22816.7941589,3.87126131395,177,174,166
-44057.2729998,22817.4241072,3.8518953586,169,167,152
-44057.2713746,22818.0540562,3.71237949431,161,162,143
-44057.2697496,22818.6840051,3.6004836485,151,149,128
-44057.2681247,22819.3139536,3.55242869055,172,167,157
-44057.2664998,22819.9439021,3.51007102482,172,167,159
-44057.264875,22820.5738505,3.48358471101,169,165,154
-44057.2632503,22821.2037986,3.48612609984,159,154,143
-44056.6527996,22813.642794,3.74498177505,158,153,142
-44056.6511742,22814.2727434,3.52607463876,137,130,115
-44056.6495495,22814.9026915,3.54293272336,130,125,115
-44056.6479246,22815.5326401,3.48089555565,166,162,149
-44056.6463001,22816.1625879,3.54379631362,155,148,136
-44056.6446763,22816.7925342,3.85749333166,162,158,146
-44056.6430517,22817.4224823,3.87777292764,177,174,167
-44056.6414269,22818.0524305,3.86647613075,173,170,160
-44056.6398019,22818.6823793,3.76362618657,171,168,156
-44056.6381767,22819.3123285,3.61246628988,148,143,129
-44056.6365517,22819.9422773,3.51254127022,152,147,135
-44056.6349269,22820.5722256,3.49900111481,158,152,140
-44056.6333022,22821.2021738,3.50198287616,158,154,141
-44056.022852,22813.6411683,3.924945011,150,146,134
-44056.0212264,22814.271118,3.65217558705,158,153,140
-44056.0196012,22814.9010669,3.52082010824,167,165,152
-44056.0179764,22815.5310153,3.47944877829,165,160,148
-44056.0163517,22816.1609635,3.49651752915,159,154,142
-44056.0147274,22816.790911,3.61215534305,157,152,141
-44056.0131033,22817.420858,3.79851046776,142,139,130
-44056.0114789,22818.0508055,3.91105442123,172,169,160
-44056.0098541,22818.680754,3.8671061436,184,180,171
-44056.0082291,22819.3107026,3.79055585601,176,172,161
-44056.0066039,22819.9406517,3.66218621605,141,141,124
-44056.0049789,22820.5706004,3.56987350183,121,119,102
-44056.003354,22821.200549,3.51522016463,159,155,141
-44055.3929042,22813.6395429,4.03766124918,154,149,137
-44055.3912784,22814.2694928,3.72122897721,159,156,142
-44055.3896531,22814.8994421,3.53264406927,166,162,149
-44055.3880283,22815.5293905,3.49707902266,159,153,141
-44055.3864035,22816.1593388,3.48069168276,160,156,146
-44055.3847791,22816.7892863,3.5977878324,164,160,149
-44055.3831545,22817.4192345,3.6079406002,149,145,134
-44055.3815305,22818.0491812,3.8478328262,169,166,159
-44055.3799057,22818.6791296,3.82040710482,176,170,160
-44055.3782811,22819.3090775,3.85372847329,182,177,170
-44055.3766563,22819.9390259,3.82146628688,180,176,166
-44055.3750314,22820.5689744,3.76952437974,152,148,135
-44055.373406,22821.1989239,3.57623018976,146,142,128
-44054.7629565,22813.6379175,4.16511962442,149,144,132
-44054.7613306,22814.2678676,3.81484100671,155,151,139
-44054.7597051,22814.8978171,3.58457397367,162,156,144
-44054.7580801,22815.5277657,3.5117504211,151,146,134
-44054.7564553,22816.157714,3.49247173497,151,147,138
-44054.7548309,22816.7876618,3.57419532736,154,152,141
-44054.7532062,22817.4176099,3.58899525951,153,150,140
-44054.7515814,22818.0475583,3.55506014169,123,119,107
-44054.7499569,22818.677506,3.63905685731,153,147,136
-44054.7483326,22819.3074534,3.75882391333,163,159,148
-44054.7467081,22819.9374012,3.81240958136,169,164,154
-44054.7450834,22820.5673495,3.80763107111,179,175,168
-44054.7434583,22821.1972984,3.69408412982,177,174,164
-44054.1330082,22813.6362931,4.10463484111,158,155,143
-44054.1313825,22814.2662428,3.83222489321,158,154,142
-44054.1297572,22814.8961919,3.67580907422,157,152,140
-44054.1281323,22815.5261403,3.63183127676,145,141,127
-44054.1265072,22816.1560893,3.50222864256,138,135,123
-44054.1248824,22816.7860375,3.50486175982,128,125,115
-44054.123258,22817.4159852,3.58421070641,149,146,134
-44054.1216336,22818.0459329,3.67065575345,159,154,145
-44054.1200094,22818.6758802,3.80758980965,143,137,125
-44054.1183845,22819.3058287,3.75778764112,148,141,131
-44054.1167598,22819.9357768,3.76242341367,153,149,138
-44054.1151352,22820.5657248,3.79295218968,164,161,152
-44054.1135105,22821.195673,3.80057937411,181,178,171
-44053.5225572,22806.07529,4.25285754564,165,160,148
-44053.5209324,22806.7052382,4.23231836326,167,161,149
-44053.5193076,22807.3351865,4.20186956741,147,143,132
-44053.5176828,22807.9651346,4.19309864252,147,143,132
-44053.5160581,22808.5950827,4.20177812411,163,159,148
-44053.5144335,22809.2250308,4.21833700289,164,160,149
-44053.5128088,22809.8549788,4.23942278103,162,158,147
-44053.5111841,22810.484927,4.22913196027,153,149,137
-44053.5095593,22811.1148753,4.20866719727,144,140,128
-44053.5079344,22811.7448236,4.16515508565,142,138,126
-44053.5063099,22812.3747714,4.2322705987,152,148,136
-44053.5046852,22813.0047195,4.23766825206,155,151,139
-44052.892609,22806.0736654,4.21669645745,166,160,148
-44052.8909842,22806.7036136,4.20239060777,156,151,139
-44052.8893595,22807.3335617,4.20249248743,150,146,135
-44052.8877348,22807.9635098,4.21265525911,152,147,136
-44052.88611,22808.593458,4.20001064484,155,151,140
-44052.8844853,22809.2234061,4.20616359444,166,162,151
-44052.8828606,22809.8533543,4.2111960676,170,166,155
-44052.881236,22810.4833022,4.24718900082,160,156,145
-44052.8796113,22811.1132504,4.24675200818,152,148,136
-44052.8779865,22811.7431987,4.21332353276,147,143,132
-44052.8763615,22812.3731472,4.13804738609,150,146,134
-44052.874737,22813.0030951,4.19410510059,155,151,139
-44052.2626611,22806.0720404,4.27868203422,167,162,150
-44052.2610363,22806.7019886,4.26462475069,170,166,156
-44052.2594118,22807.3319365,4.31157793622,142,136,125
-44052.2577869,22807.9618849,4.26339331898,162,156,146
-44052.256162,22808.5918332,4.23210203097,162,158,147
-44052.2545372,22809.2217814,4.21949881559,165,161,150
-44052.2529125,22809.8517295,4.22281553886,168,166,154
-44052.251288,22810.4816774,4.25960146885,167,163,153
-44052.2496632,22811.1116256,4.25286880755,159,155,145
-44052.2480386,22811.7415737,4.26657246969,152,148,137
-44052.2464135,22812.3715222,4.189741133,155,151,140
-44052.2447886,22813.0014707,4.12153210938,155,151,140
-44051.6327133,22806.0704153,4.37056799812,153,149,137
-44051.6310889,22806.7003631,4.44174726623,163,159,147
-44051.6294638,22807.3303116,4.35954050934,166,162,150
-44051.6278392,22807.9602596,4.37659593122,166,162,152
-44051.6262143,22808.590208,4.33072661486,163,159,148
-44051.6245894,22809.2201563,4.28964772781,163,159,148
-44051.6229645,22809.8501046,4.25149085371,167,164,153
-44051.6213398,22810.4800528,4.2531584242,165,161,151
-44051.6197152,22811.1100008,4.26635907891,152,148,135
-44051.6180904,22811.739949,4.2641698462,153,149,136
-44051.6164656,22812.3698972,4.24028372417,158,153,142
-44051.6148406,22812.9998458,4.16513616735,162,159,148
-44051.0027664,22806.0687893,4.66262023863,172,168,157
-44051.0011411,22806.6987381,4.51805903179,166,162,150
-44050.9995162,22807.3286863,4.48717688167,167,163,151
-44050.9978915,22807.9586345,4.47625534437,164,159,148
-44050.9962669,22808.5885824,4.50535055058,168,167,154
-44050.9946414,22809.2185315,4.31533369158,171,167,157
-44050.9930168,22809.8484795,4.33827594682,165,161,150
-44050.9913918,22810.478428,4.26710813183,151,147,135
-44050.9897669,22811.1083763,4.230084213,136,132,120
-44050.9881422,22811.7383244,4.24049543438,138,132,119
-44050.9865175,22812.3682725,4.24913527968,149,144,131
-44050.9848927,22812.9982208,4.21820923771,152,146,133
-44050.3728178,22806.0671651,4.54277872279,172,168,157
-44050.371193,22806.6971133,4.51940833443,170,167,154
-44050.3695683,22807.3270615,4.51596473387,149,140,127
-44050.3679436,22807.9570095,4.5269895972,168,165,153
-44050.3663181,22808.5869585,4.33912732467,170,166,156
-44050.3646933,22809.2169068,4.31399384134,158,153,142
-44050.3630687,22809.8468547,4.35700658783,153,146,133
-44050.361444,22810.4768028,4.35395463212,136,128,115
-44050.3598191,22811.1067512,4.30222553435,126,121,108
-44050.3581941,22811.7366997,4.23794298368,128,120,108
-44050.3565694,22812.3666477,4.25798691474,140,134,120
-44050.3549446,22812.996596,4.2334689986,143,136,122
-44049.7428699,22806.0655402,4.5916985834,174,170,159
-44049.741245,22806.6954886,4.53104307645,163,159,147
-44049.7396203,22807.3254366,4.54900716941,141,132,119
-44049.7379962,22807.955384,4.69568439715,128,119,104
-44049.7363702,22808.5853336,4.37957885589,172,169,158
-44049.7347452,22809.215282,4.31694257662,158,153,141
-44049.7331204,22809.8452302,4.29953355989,174,169,157
-44049.7314957,22810.4751783,4.30799102288,155,149,136
-44049.729871,22811.1051264,4.32401997655,125,119,105
-44049.7282461,22811.7350748,4.27132684999,129,122,109
-44049.7266214,22812.365023,4.26300641839,137,130,117
-44049.7249964,22812.9949714,4.21125427561,137,129,115
-44049.1129218,22806.0639155,4.58252174188,174,170,160
-44049.1112971,22806.6938636,4.59523573733,168,162,151
-44049.109673,22807.323811,4.7328158634,150,140,128
-44049.1080466,22807.9537609,4.34943106928,143,134,122
-44049.106422,22808.5837089,4.36508098716,170,165,154
-44049.1047972,22809.2136571,4.35423834409,168,163,151
-44049.1031723,22809.8436055,4.3122328437,178,174,163
-44049.1015475,22810.4735537,4.2866887939,154,147,133
-44049.0999228,22811.1035018,4.29855917509,134,126,112
-44049.098298,22811.73345,4.2845938406,136,127,115
-44049.0966733,22812.3633982,4.27131625449,140,132,119
-44049.0950482,22812.9933468,4.18076868396,142,132,120
-44048.4829736,22806.0622909,4.56668640732,176,172,163
-44048.4813492,22806.6922387,4.63532189722,174,170,161
-44048.4797233,22807.3221879,4.37068916379,150,141,127
-44048.4780984,22807.9521363,4.32595066388,151,143,130
-44048.4764737,22808.5820844,4.32402812038,167,162,151
-44048.4748491,22809.2120324,4.35507928568,173,169,158
-44048.4732243,22809.8419807,4.32181537375,173,168,157
-44048.4715994,22810.4719289,4.29636163855,150,142,128
-44048.4699745,22811.1018773,4.25487984494,148,139,125
-44048.4683498,22811.7318254,4.25104732816,150,141,129
-44048.4667251,22812.3617735,4.27046269616,145,137,125
-44048.4651,22812.9917221,4.18307701899,154,147,134
-44047.8530247,22806.060667,4.36727130363,175,171,160
-44047.8514004,22806.6906147,4.4714698155,177,173,162
-44047.8497749,22807.3205636,4.29692837027,164,156,144
-44047.8481503,22807.9505115,4.33017605226,177,171,159
-44047.8465281,22808.5804571,4.88431921786,177,171,159
-44047.8449015,22809.2104072,4.46079072821,179,175,166
-44047.8432763,22809.8403557,4.36609096818,174,170,160
-44047.8416514,22810.4703041,4.32034197036,165,159,147
-44047.8400265,22811.1002525,4.26977577466,168,161,150
-44047.8384015,22811.7302009,4.21958486508,166,159,149
-44047.8367768,22812.360149,4.22015054731,165,159,147
-44047.8351519,22812.9900974,4.18153275071,166,160,147
-44047.2230766,22806.0590423,4.36900927101,173,170,159
-44047.2214517,22806.6889905,4.34340123508,175,169,159
-44047.2198269,22807.3189387,4.32509634906,173,168,157
-44047.2182022,22807.9488868,4.32515044143,180,173,163
-44047.2165778,22808.5788347,4.3889041699,179,175,164
-44047.2149547,22809.2087811,4.74447985734,185,180,173
-44047.2133292,22809.83873,4.57714623405,181,180,171
-44047.2117034,22810.4686793,4.33142412992,182,178,169
-44047.2100783,22811.0986278,4.26819102246,182,177,168
-44047.2084534,22811.7285762,4.21598343534,180,175,166
-44047.2068285,22812.3585245,4.1884834663,173,168,158
-44047.2052038,22812.9884727,4.17537976336,171,167,157
-44046.5931281,22806.0574179,4.29115689249,169,163,151
-44046.5915034,22806.687366,4.30379524988,167,161,150
-44046.5898787,22807.3173141,4.30926716254,170,164,153
-44046.5882541,22807.9472621,4.33363369209,176,171,160
-44046.5866293,22808.5772103,4.31347209706,179,175,164
-44046.5850049,22809.2071581,4.37543050379,184,180,172
-44046.5833825,22809.8371038,4.87511130273,183,179,170
-44046.5817552,22810.4670547,4.32040274481,185,182,174
-44046.5801303,22811.097003,4.27669516309,185,181,172
-44046.5785052,22811.7269515,4.21150241992,183,179,169
-44046.5768803,22812.3568998,4.17418814359,172,168,159
-44046.5752556,22812.986848,4.17507833211,173,169,160
-44045.9631802,22806.0557929,4.34614437353,174,169,158
-44045.9615555,22806.685741,4.34950258703,172,168,157
-44045.9599305,22807.3156895,4.28384820327,168,160,150
-44045.958306,22807.9456374,4.32077159612,172,167,156
-44045.9566812,22808.5755856,4.31580653557,176,172,161
-44045.9550564,22809.2055338,4.29185039113,180,176,167
-44045.9534317,22809.8354819,4.30559854153,181,177,168
-44045.9518069,22810.4654302,4.27867184096,180,176,168
-44045.9501826,22811.0953778,4.36819688399,179,176,168
-44045.9485572,22811.7253266,4.23949282885,183,179,169
-44045.9469325,22812.3552748,4.23967590853,186,182,174
-44045.9453075,22812.9852232,4.17975259335,171,167,158
-44045.3332321,22806.0541682,4.34120251795,179,175,166
-44045.3316074,22806.6841164,4.33730419166,178,173,164
-44045.3299824,22807.3140647,4.29778699633,171,164,153
-44045.3283578,22807.9440127,4.32134325989,170,165,153
-44045.3267331,22808.5739609,4.31091942531,171,167,156
-44045.3251082,22809.2039091,4.28328177032,174,171,160
-44045.3234836,22809.8338572,4.30052024968,178,175,164
-44045.3218589,22810.4638053,4.30742653016,181,177,168
-44045.3202345,22811.0937531,4.36342346917,184,180,172
-44045.3186103,22811.7237007,4.46978982301,182,178,169
-44045.3169848,22812.3536497,4.30838979171,180,176,167
-44045.3153597,22812.9835982,4.236404897,172,168,158
-44044.7032862,22806.0525416,4.77724762772,182,178,168
-44044.7016602,22806.6824909,4.51686821724,178,174,165
-44044.7000344,22807.3124399,4.30499251068,170,164,152
-44044.6984096,22807.9423881,4.302637293,169,165,153
-44044.6967849,22808.5723363,4.2900964082,168,165,153
-44044.6951601,22809.2022845,4.27471322871,168,165,153
-44044.6935355,22809.8322325,4.29917544492,173,169,159
-44044.6919111,22810.4621802,4.37430434005,180,176,167
-44044.6902863,22811.0921285,4.34710741042,177,173,165
-44044.6886617,22811.7220765,4.37239666554,174,170,161
-44044.6870374,22812.3520242,4.4507791167,171,168,158
-44044.6854124,22812.9819726,4.40176149989,175,171,160
-44053.5420539,22798.5159123,4.2671642923,174,170,161
-44053.5404287,22799.1458608,4.15198313881,168,164,153
-44053.5388043,22799.7758087,4.21506538492,162,156,145
-44053.5371797,22800.4057567,4.26618620153,158,153,141
-44053.5355552,22801.0357046,4.31820647224,158,154,143
-44053.5339318,22801.6656515,4.67219146009,169,165,156
-44053.5323064,22802.2956003,4.4829520242,169,164,153
-44053.5306811,22802.925549,4.32305780906,166,159,148
-44053.5290565,22803.555497,4.35901334056,162,159,147
-44053.527433,22804.1854437,4.70374793579,161,157,146
-44053.5258081,22804.8153921,4.64436992706,160,156,144
-44053.5241821,22805.4453416,4.29919885198,164,159,148
-44052.9121057,22798.5142876,4.25415525407,171,167,157
-44052.9104807,22799.144236,4.1839574524,172,167,156
-44052.9088561,22799.774184,4.21665927702,163,158,146
-44052.9072315,22800.404132,4.24224241146,154,149,138
-44052.9056088,22801.0340783,4.77391255243,159,154,143
-44052.9039834,22801.6640271,4.59117634137,166,161,149
-44052.9023581,22802.2939757,4.45278243925,170,163,153
-44052.9007332,22802.923924,4.40326467004,165,159,148
-44052.8991086,22803.553872,4.42959113038,166,162,150
-44052.8974844,22804.1838196,4.55102989072,162,158,145
-44052.8958588,22804.8137687,4.31394469907,167,162,151
-44052.8942338,22805.4437171,4.2428469884,165,159,147
-44052.2821571,22798.5126632,4.13379789059,175,170,162
-44052.2805324,22799.1426114,4.14218371578,173,168,157
-44052.2789079,22799.7725594,4.18793940708,163,157,145
-44052.2772836,22800.4025071,4.30641583502,146,142,130
-44052.2756596,22801.0324546,4.48541286298,166,160,149
-44052.2740347,22801.6624029,4.42332774553,166,161,149
-44052.2724098,22802.2923512,4.39056394571,165,159,147
-44052.2707852,22802.9222992,4.41804288962,165,160,149
-44052.2691603,22803.5522475,4.3634730031,167,162,150
-44052.2675355,22804.1821957,4.35332625336,160,154,143
-44052.2659106,22804.812144,4.30311767323,167,162,150
-44052.2642858,22805.4420922,4.28797806834,165,160,148
-44051.652209,22798.5110386,4.1228149417,170,166,155
-44051.6505845,22799.1409865,4.18313053227,165,159,148
-44051.6489598,22799.7709346,4.19381617468,161,155,142
-44051.6473357,22800.4008822,4.35841547448,170,165,154
-44051.6457112,22801.0308302,4.40250738722,167,162,150
-44051.6440863,22801.6607785,4.36106738483,165,160,147
-44051.6424617,22802.2907264,4.39671544052,167,161,150
-44051.6408371,22802.9206745,4.42593108524,167,162,151
-44051.6392124,22803.5506226,4.42493477798,171,167,156
-44051.6375875,22804.1805709,4.3770450829,167,161,150
-44051.6359626,22804.8105192,4.32637191345,168,163,152
-44051.634338,22805.4404672,4.36769568536,163,158,146
-44051.0222611,22798.5094137,4.18583922613,167,162,150
-44051.0206369,22799.1393614,4.30812939025,167,161,149
-44051.0190116,22799.76931,4.17805187874,167,160,150
-44051.0173871,22800.399258,4.22206597448,171,167,156
-44051.0157626,22801.0292059,4.29155268428,163,159,147
-44051.014138,22801.6591539,4.31774428338,165,160,147
-44051.0125136,22802.2891018,4.37887767676,169,164,153
-44051.0108903,22802.9190485,4.74043621302,165,161,150
-44051.0092641,22803.5489981,4.37454769325,167,163,152
-44051.0076394,22804.1789462,4.37472705661,164,159,147
-44051.0060146,22804.8088944,4.35001883382,169,165,154
-44051.0043899,22805.4388425,4.3569732876,148,144,132
-44050.3923154,22798.5077871,4.78260105653,168,161,150
-44050.3906899,22799.1377358,4.58412688289,169,166,155
-44050.3890635,22799.7676852,4.18709301032,172,169,159
-44050.387439,22800.3976332,4.22365804681,168,163,151
-44050.3858144,22801.0275812,4.26274132218,170,165,156
-44050.38419,22801.6575291,4.34391522521,167,160,149
-44050.3825655,22802.287477,4.38871968747,166,162,150
-44050.3809404,22802.9174255,4.30030601289,167,161,150
-44050.3793159,22803.5473734,4.36172917728,170,166,156
-44050.3776911,22804.1773217,4.3250445906,173,169,158
-44050.3760663,22804.8072698,4.31850303063,173,169,160
-44050.3744421,22805.4372174,4.4388833632,171,167,155
-44049.7623649,22798.5061641,4.2080547091,168,163,153
-44049.7607402,22799.1361123,4.21513940159,169,163,152
-44049.7591153,22799.7660605,4.17173912766,173,168,157
-44049.7574906,22800.3960087,4.17512137967,168,161,149
-44049.7558661,22801.0259567,4.21011620613,165,158,147
-44049.7542414,22801.6559048,4.21727075335,163,157,145
-44049.7526168,22802.2858528,4.24917657465,166,160,147
-44049.7509922,22802.9158009,4.27219300934,166,161,150
-44049.7493679,22803.5457487,4.36716783907,173,169,160
-44049.7477431,22804.1756968,4.35799574232,175,171,161
-44049.7461182,22804.8056451,4.32452930129,174,170,160
-44049.7444953,22805.4355914,4.74702683452,175,171,161
-44049.1324168,22798.5045394,4.20854626154,168,162,151
-44049.1307921,22799.1344876,4.20565811353,168,161,149
-44049.1291674,22799.7644357,4.21077168447,166,161,149
-44049.1275428,22800.3943837,4.24542911756,167,160,148
-44049.125918,22801.0243319,4.23575662773,166,159,148
-44049.1242934,22801.65428,4.25368089818,166,161,149
-44049.1226688,22802.284228,4.28537333681,170,165,153
-44049.1210441,22802.9141761,4.28244811469,164,160,149
-44049.1194194,22803.5441242,4.28595017084,172,168,159
-44049.1177949,22804.1740722,4.32876587051,174,170,160
-44049.1161721,22804.8040185,4.78243216122,176,172,161
-44049.1145469,22805.433967,4.67724649264,174,170,158
-44048.5024687,22798.5029147,4.21048370556,168,161,149
-44048.5008439,22799.1328629,4.20228773512,167,160,147
-44048.4992193,22799.762811,4.21052274117,166,161,149
-44048.4975948,22800.3927589,4.27569523416,167,161,150
-44048.49597,22801.0227071,4.25830063539,166,160,149
-44048.4943454,22801.6526551,4.28841873395,170,164,154
-44048.4927209,22802.2826031,4.32159218429,174,169,160
-44048.4910964,22802.9125511,4.36802564375,174,170,161
-44048.4894716,22803.5424992,4.36814540306,173,169,159
-44048.4878466,22804.1724476,4.3018670499,172,167,157
-44048.4862231,22804.8023947,4.55833706527,180,175,167
-44048.4845989,22805.4323422,4.6932721053,180,176,165
-44047.8725205,22798.5012901,4.18567271147,164,157,147
-44047.8708977,22799.1312368,4.60839643918,165,157,146
-44047.8692713,22799.7611861,4.24617145753,169,165,154
-44047.8676466,22800.3911343,4.24243278531,169,165,154
-44047.8660219,22801.0210824,4.2521195113,171,166,155
-44047.8643973,22801.6510304,4.27635727128,172,167,156
-44047.8627727,22802.2809784,4.31215062723,175,170,160
-44047.861148,22802.9109265,4.32215046521,172,166,153
-44047.8595234,22803.5408746,4.34284616377,171,165,151
-44047.8578987,22804.1708227,4.34879192211,173,168,157
-44047.8562738,22804.800771,4.31202669383,168,161,149
-44047.8546493,22805.4307189,4.35373157803,173,169,158
-44047.2425729,22798.4996649,4.31404720721,167,158,148
-44047.2409489,22799.1296126,4.45715676195,166,162,152
-44047.239323,22799.7595616,4.20048718119,163,156,145
-44047.2376986,22800.3895094,4.2827607983,170,164,152
-44047.2360738,22801.0194576,4.26674516817,175,171,160
-44047.2344491,22801.6494057,4.2720163242,176,172,161
-44047.2328245,22802.2793538,4.29417595458,172,167,155
-44047.2311999,22802.9093018,4.32335911334,164,157,144
-44047.2295754,22803.5392498,4.35254230566,156,148,134
-44047.2279508,22804.1691978,4.38270814465,157,148,135
-44047.2263259,22804.7991461,4.35611846992,163,158,147
-44047.2247009,22805.4290945,4.2788353774,172,167,156
-44046.6126256,22798.4980397,4.48138601357,175,170,161
-44046.6110005,22799.1279881,4.39174491782,173,166,156
-44046.6093764,22799.7579357,4.53530109168,170,165,154
-44046.6077531,22800.3878829,4.82088864318,170,164,152
-44046.6061287,22801.0178307,4.90215099525,170,165,154
-44046.6045014,22801.6477808,4.34716774197,171,165,152
-44046.6028767,22802.2777288,4.36124955642,150,142,128
-44046.601252,22802.907677,4.36007580387,144,135,122
-44046.5996273,22803.5376251,4.35881383582,144,136,123
-44046.5980024,22804.1675733,4.33347865946,164,156,143
-44046.5963777,22804.7975215,4.32042725798,169,164,152
-44046.5947528,22805.4274697,4.29363850734,177,170,158
-44045.9826773,22798.4964151,4.43273603983,165,161,151
-44045.9810525,22799.1263633,4.41161712652,161,154,142
-44045.9794282,22799.7563111,4.49982320677,164,158,146
-44045.977804,22800.3862589,4.60945793477,174,168,156
-44045.9761794,22801.0162069,4.63344821189,147,139,128
-44045.974553,22801.6461562,4.3023402283,157,148,136
-44045.9729284,22802.2761043,4.30874253398,144,135,120
-44045.9713036,22802.9060524,4.30748049142,145,136,121
-44045.9696789,22803.5360006,4.30621851195,145,136,122
-44045.9680543,22804.1659486,4.32374819273,168,160,146
-44045.9664296,22804.7958967,4.33061570822,171,165,152
-44045.9648048,22805.4258449,4.32262605745,176,171,160
-44045.3527288,22798.4947906,4.36618008969,172,167,156
-44045.3511041,22799.1247387,4.36472185581,161,155,143
-44045.3494796,22799.7546867,4.4090329908,152,144,131
-44045.3478554,22800.3846345,4.50267599989,167,159,147
-44045.3462295,22801.0145835,4.27041523995,150,140,127
-44045.3446046,22801.6445317,4.23378915801,166,158,145
-44045.3429799,22802.2744799,4.23307096033,169,162,149
-44045.3413552,22802.904428,4.24355589125,157,148,135
-44045.3397306,22803.534376,4.25977048335,147,138,123
-44045.3381063,22804.1643238,4.3404977181,168,161,145
-44045.3364817,22804.7942718,4.37191379654,169,163,149
-44045.334857,22805.4242199,4.37889462493,177,172,161
-44044.7227803,22798.4931662,4.27436582129,164,157,146
-44044.7211557,22799.1231142,4.31064230815,153,147,134
-44044.7195312,22799.7530622,4.34718470461,142,136,123
-44044.7179069,22800.3830101,4.42603861164,159,150,138
-44044.7162811,22801.0129589,4.21880882122,154,146,132
-44044.7146563,22801.6429071,4.19518789265,163,156,142
-44044.7130317,22802.2728552,4.21370418934,164,156,143
-44044.711407,22802.9028033,4.22971613929,159,150,138
-44044.7097823,22803.5327515,4.2237422445,154,146,134
-44044.7081579,22804.1626993,4.28969813926,176,170,159
-44044.7065332,22804.7926474,4.3000763819,175,169,156
-44044.7049092,22805.422595,4.43533461777,172,166,154
-44062.9717777,22806.0996633,3.65718940807,163,156,143
-44062.9701529,22806.7296116,3.62801719204,156,151,137
-44062.9685283,22807.3595597,3.65111065287,160,154,136
-44062.9669038,22807.9895074,3.75337501369,164,155,141
-44062.9652794,22808.6194549,3.90958043209,158,154,143
-44062.9636548,22809.2494028,3.962790401,179,173,163
-44062.96203,22809.8793511,3.94755379363,178,175,166
-44062.9604048,22810.5093003,3.7259590398,167,163,150
-44062.9587798,22811.1392492,3.58357215553,143,140,120
-44062.957155,22811.7691976,3.54682076838,150,141,122
-44062.9555303,22812.3991458,3.5576929469,179,173,160
-44062.9539056,22813.0290941,3.54072329629,184,177,157
-44062.3418296,22806.0980385,3.68006773323,165,159,145
-44062.3402048,22806.7279869,3.63853505845,162,159,145
-44062.33858,22807.3579352,3.61331847694,169,166,151
-44062.3369553,22807.9878833,3.63421930113,164,157,143
-44062.3353308,22808.6178311,3.70639481017,155,149,135
-44062.3337064,22809.2477786,3.85336611565,168,162,151
-44062.3320819,22809.8777264,3.94331579268,170,167,155
-44062.3304572,22810.5076745,3.95451074902,177,174,166
-44062.3288322,22811.1376233,3.82899944482,164,160,150
-44062.3272071,22811.7675722,3.67467293051,157,148,128
-44062.3255821,22812.397521,3.56553402408,162,154,134
-44062.3239574,22813.0274693,3.5510583158,182,178,165
-44061.7118817,22806.0964133,3.79381118453,169,162,148
-44061.7102569,22806.7263616,3.76071887543,165,159,143
-44061.708632,22807.3563101,3.69591765914,146,139,128
-44061.7070073,22807.9862582,3.70227503289,174,168,156
-44061.7053825,22808.6162066,3.66586531352,170,163,150
-44061.7037579,22809.2461546,3.70631529902,158,152,136
-44061.7021335,22809.8761021,3.84052324226,158,154,142
-44061.700509,22810.5060498,3.93532750938,177,173,163
-44061.6988843,22811.1359979,3.96368380831,175,170,163
-44061.6972594,22811.7659464,3.88887954863,181,176,168
-44061.6956343,22812.3958956,3.69925055045,178,173,162
-44061.6940094,22813.0258442,3.62914224733,169,164,146
-44061.0819342,22806.0947873,4.09104868354,159,150,134
-44061.0803094,22806.7247357,4.02511351593,146,138,120
-44061.0786843,22807.3546845,3.89459787831,160,151,141
-44061.0770591,22807.9846336,3.69158603859,178,170,157
-44061.0754343,22808.6145819,3.65369131653,178,170,160
-44061.0738095,22809.2445302,3.63398058915,159,151,136
-44061.0721849,22809.8744782,3.68837904673,145,137,122
-44061.0705606,22810.5044255,3.85472317937,153,146,134
-44061.0689361,22811.1343733,3.93788967332,168,161,152
-44061.0673114,22811.7643215,3.92493882158,175,169,160
-44061.0656866,22812.3942697,3.92354865222,180,176,169
-44061.0640615,22813.0242187,3.76312194006,172,168,155
-44060.4519864,22806.093162,4.22452531635,148,135,119
-44060.4503621,22806.7231095,4.36388815407,177,169,156
-44060.4487369,22807.3530584,4.20048395567,166,158,151
-44060.4471115,22807.9830078,3.93027225943,126,119,113
-44060.4454863,22808.6129568,3.74213075448,172,165,157
-44060.4438613,22809.2429055,3.62748250856,171,163,152
-44060.4422366,22809.8728537,3.63590832523,152,143,131
-44060.440612,22810.5028017,3.68178346374,143,128,112
-44060.4389877,22811.132749,3.85600944779,160,152,136
-44060.4373631,22811.762697,3.89398602945,172,165,151
-44060.4357385,22812.392645,3.9124961201,172,168,157
-44060.4341138,22813.0225932,3.91701837599,180,176,167
-44059.8220382,22806.0915375,4.18101209588,156,147,131
-44059.8204137,22806.7214853,4.250590292,164,159,151
-44059.8187894,22807.3514327,4.41853058041,158,151,146
-44059.8171641,22807.9813817,4.21388187907,159,151,144
-44059.8155386,22808.6113313,3.90629679249,166,160,149
-44059.8139133,22809.2412805,3.68804218646,169,161,143
-44059.8122884,22809.8712291,3.60626933305,155,147,134
-44059.8106637,22810.5011771,3.64172156201,136,127,113
-44059.8090391,22811.1311253,3.6550219633,141,132,116
-44059.8074144,22811.7610734,3.66736395664,131,120,102
-44059.8057901,22812.3910208,3.82255401128,162,157,145
-44059.8041656,22813.0209685,3.91393841521,172,167,159
-44059.1920901,22806.0899128,4.16976597328,152,147,137
-44059.1904654,22806.7198608,4.20882951374,176,170,155
-44059.1888408,22807.3498088,4.23941804697,148,143,139
-44059.1872161,22807.9797568,4.25133102216,151,143,138
-44059.1855908,22808.609706,4.0283000113,137,133,124
-44059.1839653,22809.2396556,3.73450280981,153,145,127
-44059.1823403,22809.8696042,3.64535112144,146,138,125
-44059.1807156,22810.4995524,3.64750764358,160,152,137
-44059.1790908,22811.1295007,3.62499400692,141,132,117
-44059.1774661,22811.7594489,3.61888857962,139,130,116
-44059.1758415,22812.3893968,3.68475919769,144,136,121
-44059.174217,22813.0193445,3.76564549416,148,141,131
-44058.562142,22806.088288,4.18332122651,167,165,152
-44058.5605173,22806.718236,4.21284295608,190,185,159
-44058.5588926,22807.3481842,4.21196554606,142,137,131
-44058.5572679,22807.9781323,4.21412499367,147,140,128
-44058.5556427,22808.6080812,4.04951100499,139,133,119
-44058.5540172,22809.2380307,3.7694345956,142,135,119
-44058.5523923,22809.8679792,3.6990412815,146,137,123
-44058.5507675,22810.4979275,3.69363735597,159,151,136
-44058.5491428,22811.1278757,3.67308180104,154,146,131
-44058.547518,22811.757824,3.65354371371,146,138,125
-44058.5458932,22812.3877724,3.6274087284,152,146,132
-44058.5442684,22813.0177207,3.60034974646,138,127,110
-44057.9321939,22806.0866631,4.22117848822,126,119,101
-44057.9305692,22806.7166114,4.19814334539,189,185,155
-44057.9289444,22807.3465596,4.18451310283,135,131,123
-44057.9273196,22807.9765078,4.16795246092,140,133,117
-44057.9256947,22808.6064563,4.08141608812,143,135,119
-44057.9240695,22809.2364053,3.9206025238,151,144,129
-44057.9224445,22809.8663538,3.8481466207,158,151,135
-44057.9208196,22810.4963023,3.78718311887,150,143,127
-44057.9191949,22811.1262505,3.78377744415,151,143,127
-44057.9175702,22811.7561986,3.80252314952,145,138,123
-44057.9159454,22812.3861469,3.76758522348,153,146,132
-44057.9143203,22813.0160958,3.63056189241,159,154,139
-44057.3022476,22806.0850359,4.81689761853,153,145,117
-44057.3006211,22806.7149866,4.21662743317,178,176,149
-44057.2989962,22807.3449349,4.16336659823,131,128,118
-44057.2973715,22807.9748831,4.17212171793,146,140,124
-44057.2957467,22808.6048314,4.13293586942,151,143,126
-44057.294122,22809.2347794,4.15426048009,148,140,126
-44057.2924975,22809.8647272,4.22955686275,140,131,116
-44057.2908723,22810.4946761,4.07272110875,149,143,127
-44057.2892476,22811.1246242,4.07978484032,143,135,122
-44057.2876233,22811.7545717,4.20781596189,139,129,117
-44057.285998,22812.3845208,4.02561355322,151,145,129
-44057.2843726,22813.0144703,3.78613769872,165,161,147
-44056.6722995,22806.0834113,4.7825102427,86,94,112
-44056.6706729,22806.7133619,4.2002085915,153,148,131
-44056.6690481,22807.3433102,4.17330105774,151,148,133
-44056.6674234,22807.9732583,4.18486212497,156,150,135
-44056.6657986,22808.6032066,4.1371393437,154,147,131
-44056.6641739,22809.2331548,4.14369422044,153,145,133
-44056.6625493,22809.8631027,4.19030604474,148,141,130
-44056.6609246,22810.4930509,4.18240489433,149,144,131
-44056.6592999,22811.1229989,4.21218830703,156,148,134
-44056.6576754,22811.7529467,4.27096705499,153,146,130
-44056.6560506,22812.382895,4.24275062457,151,144,128
-44056.6544251,22813.0128444,4.00747555656,156,150,137
-44056.0423495,22806.081789,4.20439857026,133,130,121
-44056.0407247,22806.7117373,4.180890882,155,152,138
-44056.0391001,22807.3416853,4.21232175014,165,160,146
-44056.0374753,22807.9716336,4.17111583934,164,158,143
-44056.0358506,22808.6015817,4.18514555504,162,155,141
-44056.034226,22809.2315297,4.21393219141,163,157,144
-44056.0326013,22809.8614778,4.22306991924,160,157,143
-44056.0309765,22810.491426,4.21603536173,162,157,145
-44056.0293518,22811.1213742,4.20688114492,161,155,142
-44056.0277273,22811.7513219,4.2872608555,154,148,134
-44056.0261027,22812.3812699,4.30633284197,156,151,139
-44056.0244777,22813.0112185,4.23086262436,156,152,139
-44055.4124015,22806.0801642,4.22389588538,133,131,123
-44055.4107766,22806.7101125,4.18609875612,152,148,136
-44055.4091519,22807.3400607,4.1857564768,162,157,144
-44055.4075272,22807.9700088,4.18946504861,163,159,147
-44055.4059024,22808.5999571,4.16794506475,159,153,141
-44055.4042777,22809.2299052,4.16907436821,153,148,135
-44055.402653,22809.8598533,4.18429409675,160,155,143
-44055.4010284,22810.4898012,4.21807822964,161,157,144
-44055.3994038,22811.1197492,4.25243492807,152,145,133
-44055.3977793,22811.7496971,4.30920392702,155,151,137
-44055.3961546,22812.3796451,4.33081614539,149,145,133
-44055.3945297,22813.0095935,4.27655612102,155,150,138
-44054.7824534,22806.0785394,4.24132247524,164,160,149
-44054.7808286,22806.7084877,4.22206722129,167,163,152
-44054.7792038,22807.3384359,4.19892360217,164,160,149
-44054.7775792,22807.968384,4.2171221819,167,162,151
-44054.7759544,22808.5983322,4.18884159973,161,157,145
-44054.7743296,22809.2282804,4.18968450421,157,153,141
-44054.7727049,22809.8582285,4.19105330478,162,158,146
-44054.7710803,22810.4881766,4.21174915359,158,153,141
-44054.7694557,22811.1181244,4.26575696563,151,146,133
-44054.7678311,22811.7480724,4.28996132604,155,152,138
-44054.7662065,22812.3780204,4.3261208295,154,151,138
-44054.7645817,22813.0079686,4.30355396926,150,146,135
-44054.1525053,22806.0769148,4.23252797455,169,166,154
-44054.1508805,22806.706863,4.21138265751,166,163,151
-44054.1492557,22807.3368112,4.19577157409,164,160,149
-44054.1476312,22807.966759,4.27445849819,162,158,147
-44054.1460066,22808.5967071,4.28551316818,156,152,141
-44054.1443817,22809.2266554,4.25224910191,161,157,146
-44054.1427569,22809.8566036,4.22493823434,163,159,148
-44054.1411321,22810.4865519,4.19748049892,164,160,148
-44054.1395074,22811.1165,4.21392147304,154,150,138
-44054.1378829,22811.7464478,4.2649644943,159,156,143
-44054.1362583,22812.3763958,4.30837406916,162,158,146
-44054.1346335,22813.0063441,4.27158243971,157,152,140
-44062.9912745,22798.5402848,3.72121110887,175,172,165
-44062.9896497,22799.170233,3.70532997661,173,170,163
-44062.988025,22799.8001812,3.69087396683,172,169,161
-44062.9864002,22800.4301294,3.68674759279,171,167,158
-44062.9847755,22801.0600777,3.67691850808,170,166,155
-44062.9831508,22801.6900258,3.69699825738,169,165,154
-44062.9815261,22802.3199739,3.71185599972,167,162,151
-44062.9799014,22802.9499221,3.71498228098,162,157,145
-44062.9782767,22803.5798703,3.71026980904,161,155,143
-44062.976652,22804.2098185,3.71494216813,165,159,147
-44062.9750272,22804.8397667,3.69764205153,164,160,149
-44062.9734024,22805.4697151,3.65996881324,167,160,150
-44062.3613263,22798.53866,3.73054511583,175,172,166
-44062.3597016,22799.1686082,3.73296469352,173,170,162
-44062.3580769,22799.7985564,3.73114801673,171,168,159
-44062.3564521,22800.4285046,3.7096921791,170,166,157
-44062.3548274,22801.0584529,3.70309091346,169,165,155
-44062.3532027,22801.688401,3.72706210595,170,166,156
-44062.351578,22802.3183492,3.72541258378,169,165,155
-44062.3499533,22802.9482972,3.75154896473,166,163,152
-44062.3483286,22803.5782454,3.74897734312,164,159,147
-44062.3467038,22804.2081938,3.69416403304,160,152,139
-44062.345079,22804.838142,3.69212593794,157,154,141
-44062.3434543,22805.4680903,3.67483434964,161,156,144
-44061.7313782,22798.5370353,3.73987919204,176,173,166
-44061.7297535,22799.1669834,3.74229876983,174,170,162
-44061.7281287,22799.7969316,3.74471840317,172,168,159
-44061.726504,22800.4268799,3.72263715611,172,168,159
-44061.7248793,22801.056828,3.733684894,169,165,156
-44061.7232546,22801.6867761,3.76359934637,171,167,157
-44061.7216299,22802.3167243,3.76580682758,170,166,157
-44061.7200051,22802.9466726,3.72814752108,167,163,153
-44061.7183804,22803.5766208,3.72523982568,161,158,146
-44061.7167556,22804.2065691,3.69554065529,156,149,136
-44061.7151309,22804.8365173,3.70059086576,152,147,133
-44061.7135063,22805.4664653,3.75397495231,159,155,140
-44061.10143,22798.5354105,3.74921332136,176,173,166
-44061.0998053,22799.1653587,3.75163290032,174,171,163
-44061.0981805,22799.795307,3.72736067011,171,166,157
-44061.0965558,22800.4252552,3.70540154836,174,169,160
-44061.0949311,22801.0552033,3.74344031117,171,167,158
-44061.0933065,22801.6851513,3.79389042732,171,167,158
-44061.0916818,22802.3150995,3.77556467259,171,167,158
-44061.0900568,22802.945048,3.68935983343,167,163,153
-44061.0884321,22803.5749963,3.68477304331,162,158,145
-44061.0868075,22804.2049443,3.72564261013,151,144,131
-44061.085183,22804.8348921,3.81387914815,149,143,128
-44061.0835585,22805.46484,3.88457704339,159,152,134
-44060.4714819,22798.5337858,3.75854751705,177,174,166
-44060.4698571,22799.163734,3.74304382699,174,169,160
-44060.4682323,22799.7936823,3.71276144755,173,167,158
-44060.4666076,22800.4236305,3.70923299549,173,169,160
-44060.4649828,22801.0535787,3.69612720295,170,166,157
-44060.4633583,22801.6835267,3.75012157479,169,164,157
-44060.4617335,22802.313475,3.72738005651,166,162,153
-44060.4601086,22802.9434234,3.66209453601,165,161,150
-44060.458484,22803.5733714,3.71853854832,164,160,148
-44060.4568595,22804.2033193,3.78443856433,153,146,133
-44060.4552352,22804.8332668,3.95284499527,152,143,128
-44060.4536107,22805.4632146,4.03906268772,166,156,139
-44059.8415337,22798.532161,3.76162029559,177,173,166
-44059.8399089,22799.1621093,3.72121483752,172,166,156
-44059.8382842,22799.7920576,3.71385354251,172,167,158
-44059.8366594,22800.4220057,3.71536563823,170,166,157
-44059.8350347,22801.051954,3.69526044044,169,165,156
-44059.8334099,22801.6819022,3.69169412219,169,165,155
-44059.8317852,22802.3118504,3.68889705587,166,162,152
-44059.8301606,22802.9417985,3.72447160245,164,160,149
-44059.8285362,22803.5717462,3.83493958571,165,163,151
-44059.8269116,22804.2016942,3.88220419141,158,152,140
-44059.8252872,22804.8316418,4.02985087728,155,147,133
-44059.8236628,22805.4615895,4.14119931729,163,152,133
-44059.2115855,22798.5305364,3.74213112445,175,170,162
-44059.2099607,22799.1604846,3.71771489881,172,165,155
-44059.208336,22799.7904328,3.73007653391,171,166,157
-44059.2067113,22800.420381,3.71237402942,170,166,157
-44059.2050865,22801.0503293,3.68563604061,169,166,157
-44059.2034617,22801.6802775,3.68146808728,170,165,156
-44059.2018371,22802.3102256,3.72041033221,167,163,152
-44059.2002126,22802.9401735,3.79401489702,166,162,151
-44059.1985884,22803.5701209,3.98977106252,166,162,150
-44059.196964,22804.2000686,4.09526617183,160,155,143
-44059.1953393,22804.8300168,4.08328074177,146,140,129
-44059.1937148,22805.4599647,4.1651738188,140,139,135
-44058.5816374,22798.5289116,3.75056239136,175,171,163
-44058.5800126,22799.1588599,3.72951810843,173,169,159
-44058.5783877,22799.7888083,3.67462677516,171,167,158
-44058.576763,22800.4187565,3.67014391317,169,166,157
-44058.5751383,22801.0487046,3.68166821373,169,166,157
-44058.5735138,22801.6786525,3.75738443539,166,164,154
-44058.5718892,22802.3086005,3.8123157577,160,156,145
-44058.5702649,22802.9385482,3.94806284444,163,158,147
-44058.5686408,22803.5684955,4.15564026386,165,160,149
-44058.5670163,22804.1984433,4.24682799565,163,157,146
-44058.5653914,22804.8283917,4.1888621996,127,126,122
-44058.5637667,22805.4583398,4.19167067123,125,130,134
-44057.9516891,22798.527287,3.70859131676,172,169,160
-44057.9500644,22799.1572352,3.71724428981,174,170,161
-44057.9484396,22799.7871834,3.71509159107,172,168,159
-44057.9468149,22800.4171316,3.70271907587,163,159,150
-44057.9451904,22801.0470796,3.77568727165,169,165,156
-44057.9435662,22801.6770271,3.94827984263,169,166,155
-44057.9419419,22802.3069748,4.09101419852,146,137,125
-44057.9403173,22802.9369228,4.12935757923,147,138,126
-44057.9386927,22803.5668707,4.18395899564,155,149,136
-44057.9370682,22804.1968186,4.24410039405,141,138,132
-44057.9354434,22804.8267669,4.21593101896,82,87,98
-44057.9338187,22805.4567149,4.23069999913,124,130,135
-44057.3217409,22798.5256623,3.70340606148,175,171,161
-44057.3201162,22799.1556105,3.72095192914,173,169,160
-44057.3184916,22799.7855585,3.76633826502,173,169,160
-44057.3168671,22800.4155065,3.82295780492,166,162,153
-44057.3152425,22801.0454545,3.86379345845,171,167,157
-44057.3136183,22801.6754021,4.03156281903,176,172,162
-44057.311994,22802.3053498,4.17109029674,149,143,129
-44057.3103697,22802.9352974,4.30655229472,145,138,125
-44057.3087449,22803.5652456,4.28537364432,159,152,139
-44057.30712,22804.195194,4.22902140557,133,130,122
-44057.3054953,22804.8251421,4.23928146804,65,68,76
-44057.3038717,22805.4550887,4.59976865168,93,95,90
-44056.6917927,22798.5240376,3.71679395383,182,178,166
-44056.6901682,22799.1539855,3.78611844431,174,168,159
-44056.6885436,22799.7839337,3.80659181843,173,169,160
-44056.6869192,22800.4138815,3.9154911736,171,167,158
-44056.6852946,22801.0438295,3.96077675913,172,168,157
-44056.6836707,22801.6737767,4.21544762288,167,163,153
-44056.6820462,22802.3037247,4.26899292797,152,148,136
-44056.6804216,22802.9336727,4.30201534232,166,160,149
-44056.6787969,22803.5636208,4.30974142962,165,157,144
-44056.6771719,22804.1935693,4.22530580295,153,146,129
-44056.6755472,22804.8235173,4.25496866826,79,75,67
-44056.673923,22805.4534648,4.38936673425,55,58,68
-44056.0618449,22798.5224125,3.81627205727,172,166,156
-44056.0602203,22799.1523606,3.84826457711,172,166,157
-44056.0585959,22799.7823085,3.9446583227,173,169,161
-44056.0569713,22800.4122565,3.97709880891,169,165,154
-44056.0553468,22801.0422044,4.05465464946,166,162,150
-44056.0537228,22801.6721518,4.28638642469,164,160,149
-44056.0520983,22802.3020997,4.34122360105,154,148,137
-44056.0504735,22802.9320479,4.31616927605,159,152,140
-44056.0488487,22803.5619962,4.28313824271,151,143,129
-44056.0472239,22804.1919444,4.25660197312,152,147,130
-44056.0455992,22804.8218925,4.26564228736,108,104,98
-44056.0439743,22805.4518408,4.22835316706,99,97,97
-44055.4318968,22798.5207878,3.84045901968,176,172,162
-44055.4302726,22799.1507355,3.98856561822,167,163,154
-44055.4286481,22799.7806834,4.06750964551,170,166,157
-44055.4270236,22800.4106313,4.13426065087,164,160,149
-44055.425399,22801.0405794,4.14805015759,164,159,148
-44055.4237748,22801.670527,4.30515215205,167,163,153
-44055.4221503,22802.3004749,4.3696164299,151,144,132
-44055.4205254,22802.9304232,4.31982319923,146,139,127
-44055.4189006,22803.5603714,4.29981435001,146,140,125
-44055.4172759,22804.1903195,4.29318722363,152,148,131
-44055.4156511,22804.8202678,4.26725975865,145,139,128
-44055.4140262,22805.4502161,4.22052294306,145,141,132
-44054.8019489,22798.5191628,3.90663562581,171,167,157
-44054.8003246,22799.1491106,4.02780929989,172,168,159
-44054.7987005,22799.7790582,4.20645607251,168,164,155
-44054.7970761,22800.409006,4.30680520046,169,165,156
