-44085.6677821,22799.228722,4.02558984171,173,179,184
-44089.4377227,22803.0181623,3.39827681915,156,155,153
-44054.1070091,22823.7154675,3.51078743066,165,162,153
-44033.2277297,22858.9389647,2.66733338947,124,129,98
-44087.5836222,22789.1544264,3.55836842354,64,64,66
-44091.3226925,22804.9128804,3.42578714548,164,164,163
-44061.7476253,22792.2375532,3.75629657185,172,175,175
-44022.6827143,22795.2865626,3.57717934913,152,145,130
-44043.9693508,22846.3676028,3.63248469676,130,124,104
-44015.1233357,22795.2670659,3.58037833925,171,165,153
-44016.3036186,22826.137779,3.33077315351,128,128,112
-44025.7219753,22838.1311634,3.75207849225,115,121,88
-44041.4333124,22852.6605846,3.99912789848,112,86,86
-44043.2809068,22869.0441262,2.73049958835,0,0,0
-44036.351476,22869.0262534,2.79284397015,41,54,70
-44023.1615547,22853.8733825,2.61702609993,67,79,96
-44091.9185259,22818.143418,3.62024327384,139,141,149
-44072.4031275,22813.0534645,3.73034055651,152,145,130
-44023.949109,22792.7700186,3.59976333157,146,139,126
-44070.4726654,22828.7972972,3.46655799532,148,150,146
-44053.455943,22831.9031665,3.70935454548,56,69,67
-44047.8806432,22795.3515497,4.1666171414,158,151,138
-44045.9972981,22792.8268827,4.10500993649,168,162,150
-44071.7260651,22831.3203395,3.51578280521,136,135,139
-44024.5433132,22806.6305036,3.57293800921,154,142,126
-44027.5906944,22846.3253636,3.29806323001,116,108,96
-44041.4852979,22832.5022521,2.99347119046,176,174,165
-44062.8759173,22843.2666064,3.56027373959,52,55,59
-44023.1956854,22840.6444516,3.98702287994,77,108,29
-44014.5015118,22792.1156994,3.6697240827,167,164,151
-44021.3675797,22816.7015495,3.85922695156,175,172,163
-44028.1962701,22855.7762207,2.93651521881,137,138,111
-44024.5806813,22792.1416953,3.51134154016,150,144,132
-44058.5491412,22811.1278752,3.67308181644,154,146,131
-44022.5397289,22850.7220173,2.38903531139,110,111,108
-44023.9214885,22803.4791382,3.57507961845,169,163,152
-44045.1935009,22860.2297151,3.4819094071,0,0,0
-44014.4153984,22825.5029556,3.32091157812,134,127,118
-44016.2971275,22828.657566,4.14237970627,84,99,63
-44013.1603768,22823.6098617,3.37639120367,113,111,96
-44047.7880312,22831.2586005,3.47792611039,173,170,162
-44079.3423099,22809.2916478,3.50481404345,150,143,124
-44101.4034894,22804.3089258,3.62621468821,151,154,142
-44017.011555,22795.9018885,3.53597578783,167,161,145
-44044.664287,22821.171305,3.27898602564,156,152,141
-44100.8076635,22791.0783896,3.54318581607,39,39,38
-44027.7141751,22798.4493,3.55549603303,163,156,143
-44045.813702,22864.0110349,3.52401066744,0,0,0
-44100.1825842,22789.1869207,3.61385673442,0,0,0
-44081.2825198,22789.7681268,4.01842522051,122,132,147
-44066.098772,22814.9270626,3.50630047966,157,154,150
-44097.0279757,22791.0686414,3.47944642212,131,136,142
-44047.0963428,22855.1950097,3.52322635958,140,133,131
-44090.1034196,22789.1609256,3.38483190727,155,157,158
-44037.1097859,22819.2619594,4.03473090453,184,181,175
-44086.9065602,22807.4213011,3.34946939477,143,140,137
-44032.7131472,22814.211,4.09101476097,161,157,144
-44026.3860386,22824.9038757,3.35319669425,167,163,152
-44052.2756587,22801.0324541,4.48541284726,166,160,149
-44025.7642152,22821.7525119,3.40194459136,172,167,157
-44055.933493,22848.2883246,3.57683214634,110,112,115
-44040.1847849,22848.2477096,3.30433285413,140,138,119
-44087.5202584,22813.7224091,3.36454632185,181,181,180
-44016.2857502,22833.0672068,3.6865791604,107,108,91
-44029.5845256,22806.0135532,3.73765920173,134,123,109
-44069.2582627,22811.1554967,3.41354283304,76,77,81
-44053.4169488,22847.0219286,3.44964604854,149,139,133
-44013.1847657,22814.1606276,5.17975295303,176,172,165
-44023.1891823,22843.1642497,3.48910907038,136,137,138
-44016.2825099,22834.3270931,4.64842441329,77,110,37
-44085.6304145,22813.717535,3.35696884303,173,173,172
-44056.0147291,22816.7909105,3.61215535897,157,152,141
-44037.1016616,22822.4117025,3.92691481532,182,179,172
-44038.9606298,22834.385598,2.91877102403,163,163,157
-44101.4051145,22803.6789788,3.53583150468,155,158,159
-44018.193463,22826.1426529,3.36055361961,131,124,108
-44058.5328937,22817.4273587,3.59668402202,162,157,142
-44054.7775788,22807.9683837,4.21712215194,167,162,151
-44025.1277673,22824.2706812,3.30250486007,169,165,155
-44060.9974462,22838.8520958,3.46601739681,140,141,144
-44075.5756121,22804.2423126,3.56223993074,124,125,128
-44044.5895514,22850.1489235,3.58797315052,146,116,115
-44086.2522429,22816.8688945,4.02262212038,118,121,131
-44020.7116331,22826.7790998,3.53331084268,160,157,148
-44038.8777679,22866.5129636,2.71156105862,51,52,51
-44028.2580108,22831.8381827,3.10840384386,174,171,161
-44037.0090487,22858.3187519,3.30977480214,154,151,141
-44020.0199314,22850.7155233,1.95855372576,52,66,85
-44050.3273209,22823.7057197,3.44107636534,147,142,131
-44059.8204142,22806.7214849,4.25059026381,164,159,151
-44097.6449246,22796.1098537,3.11604542571,129,129,117
-44048.4699749,22811.1018767,4.25487983965,148,139,125
-44045.208123,22854.5601837,3.4255079638,147,144,134
-44014.4836399,22799.0451299,3.66059866254,165,158,141
-44030.8151797,22817.3558681,4.08326751519,169,166,159
-44049.6063954,22858.9811741,5.31619109122,0,0,0
-44049.6323841,22848.9020212,3.73071106955,153,136,126
-44022.0365187,22801.58442,3.57444720299,149,140,124
-44079.3796784,22794.8028387,3.66338963155,165,161,152
-44021.9211623,22846.3107401,3.39803719916,143,136,118
-44011.3079242,22809.1161677,5.66479000343,176,171,165
-44046.4826436,22848.8939021,3.32180604902,143,121,118
-44030.7615579,22838.1441659,3.24464139393,133,133,124
-44068.6754306,22792.8853735,3.71398431551,164,159,154
-44054.7304592,22826.2368862,3.42307299619,119,122,100
-44059.786293,22819.9504022,3.46797943529,154,152,143
-44046.4761469,22851.4136864,3.78670300565,134,98,96
-44097.0149794,22796.1082292,3.01615182467,143,141,138
-44067.3554216,22816.1902051,3.79877924763,148,158,152
-44105.1880497,22802.4288287,4.02031469501,0,0,0
-44016.2841288,22833.697153,4.04005969311,91,98,74
-44052.8714872,22814.2629911,4.06129790902,158,154,143
-44098.9031978,22796.74305,3.28821492053,141,142,132
-44023.8386309,22835.6064944,3.94009615089,91,105,72
-44026.3502972,22838.7627344,3.65740114712,101,114,75
-44032.609155,22854.5276987,2.63358573857,144,142,124
-44074.3043481,22808.6487035,3.32459457077,149,147,143
-44063.6277208,22796.0221172,3.71822709658,173,172,166
-44031.5068629,22793.4194636,3.59799994887,170,163,152
-44048.3692398,22850.1586708,3.68555000627,123,118,100
-44102.0399412,22801.790759,3.66914207334,169,172,179
-44077.4297198,22818.1060477,3.90444839748,148,140,124
-44016.3669845,22801.5697977,3.52199569067,157,147,131
-44043.4368879,22808.5690878,4.26371017467,159,155,142
-44074.3238449,22801.0893223,3.62926210231,167,168,162
-44045.9063099,22828.1039852,3.29600903015,151,144,133
-44052.8373658,22827.4919068,3.41912156731,161,161,148
-44069.2696362,22806.7458578,3.76083744266,177,172,166
-44096.9824818,22808.7071901,4.02235757323,128,124,105
-44089.4669662,22791.6790918,4.06882283351,63,92,114
-44088.8288981,22794.8272097,3.60514184109,118,117,108
-44023.1534267,22857.0231319,2.09757277803,52,64,86
-44028.2238935,22845.0670969,3.3423245688,124,115,100
-44045.2227452,22848.8906522,3.36584003972,135,105,101
-44093.8327412,22808.6990693,3.42304665756,144,143,129
-44052.7788763,22850.1700453,3.54984594921,131,122,118
-44033.2586033,22846.9699398,3.24134167543,150,142,122
-44020.7197561,22823.6293577,3.47226325442,141,132,119
-44037.6324937,22860.8401814,2.72018842832,135,138,120
-44021.2765744,22851.9786776,1.43597300791,53,68,85
-44100.145216,22803.6757294,3.53344114925,144,148,148
-44088.7785315,22814.3556015,3.79821651714,98,102,110
-44038.8842665,22863.9931744,2.66757432116,136,132,114
-44020.1759192,22790.240478,3.6111834874,151,143,130
-44011.3534122,22791.4776243,5.26122513949,169,165,155
-44056.6982909,22796.004245,3.79969958595,174,170,162
-44036.3985958,22850.7577514,3.25205179089,142,127,110
-44046.5915044,22806.6873656,4.30379520315,167,161,150
-44029.441543,22861.4490051,2.74823193268,48,61,82
-44015.0063491,22840.623341,2.88143903689,140,134,128
-44040.780615,22861.4782431,3.29152606101,137,132,122
-44075.5138728,22828.1803438,3.70660808912,134,139,144
-44049.1210455,22802.9141769,4.28244815612,164,160,149
-44035.2573111,22804.7682776,4.11552002127,151,145,134
-44017.0245535,22790.8623017,3.6228846952,166,159,147
-44057.8720794,22829.3947489,3.86857739589,133,175,167
-44078.032045,22828.8167915,3.76084704719,137,140,147
-44072.9843351,22831.9535346,3.50248753154,132,132,139
-44040.9479653,22796.5935737,4.04077993653,156,150,136
-44016.9563206,22817.3201237,4.18301899106,164,159,150
-44028.1816461,22861.445756,2.72364425843,47,59,79
-44063.0123942,22790.3509586,3.78306480643,163,164,163
-44020.0963058,22821.1079403,3.37336026411,127,116,103
-44020.0475702,22840.0063821,4.04588415435,110,124,100
-44061.0965546,22800.4252556,3.70540153387,174,169,160
-44091.9591444,22802.3947119,3.4175826294,166,167,169
-44089.38898,22821.916605,3.92149064319,141,144,151
-44049.6730007,22833.1533193,3.40049061906,117,124,105
-44056.0813446,22790.9630332,4.24679284138,171,173,171
-44068.5519519,22840.7614358,3.54114759088,0,0,0
-44070.4564182,22835.096778,3.53194075813,129,128,139
-44011.9232449,22814.7873273,5.18701773232,170,166,156
-44047.0687226,22865.9041281,3.5400473321,0,0,0
-44048.3757403,22847.6388699,4.04653043553,154,139,132
-44032.6302816,22846.3383605,3.38172308083,140,132,113
-44042.1493722,22819.2749568,4.09868020022,162,158,148
-44016.2662473,22840.626589,3.02513280483,126,123,122
-44053.4916864,22818.0443101,3.60830736415,147,141,131
-44020.7392579,22816.0699743,4.05088188217,173,171,164
-44055.9968567,22823.7203422,3.44549488463,139,134,121
-44035.2735564,22798.4687958,3.82636893931,169,163,151
-44059.1498448,22822.468571,3.43966216899,127,125,118
-44015.6882955,22820.4666164,3.60461371558,148,145,129
-44051.5969684,22819.92928,3.60932347387,165,158,147
-44054.0598929,22841.9839642,3.69987332286,165,157,134
-44030.8492975,22804.1269562,3.89762846151,139,132,116
-44041.5340462,22813.6037998,4.23100456864,175,171,162
-44059.1108521,22837.5873255,3.615816788,147,141,136
-44052.1213071,22860.8775383,3.62093254311,0,0,0
-44061.7460005,22792.8675014,3.74714794186,170,169,164
-44011.9719849,22795.8888867,5.04096929454,165,158,141
-44068.5470774,22842.6512852,3.3815699535,0,0,0
-44018.1300829,22850.710653,1.62087786945,45,57,77
-44073.0509485,22806.1256598,3.53016023488,161,159,155
-44091.9883887,22791.0556433,3.6570943033,176,167,162
-44014.4673967,22805.3446093,4.07129484562,139,129,113
-44052.8503647,22822.4523217,3.75278744293,169,167,162
-44092.5598439,22813.7354044,3.81237917457,114,119,129
-44095.7193338,22809.9638351,4.06062330714,107,109,108
-44024.4750727,22833.0883315,3.28347669568,127,124,112
-44025.2187533,22788.9935793,3.52298389009,167,163,151
-44060.4324904,22813.6525437,3.8144675651,183,180,169
-44075.5918593,22797.9428305,3.83162963345,160,154,146
-44027.5516965,22861.4441316,2.69740832127,47,59,78
-44041.4186866,22858.3301239,3.38771173774,151,145,136
-44018.8965256,22797.7966065,3.57880851101,150,141,124
-44024.4100756,22858.2862704,2.26662163907,46,59,78
-44011.960615,22800.2985219,5.34520488326,175,170,159
-44065.446077,22823.7447113,3.67730682204,134,139,111
-44070.4824139,22825.0176035,3.71580769275,135,142,140
-44074.8969253,22823.1391275,4.43825470223,137,140,144
-44056.0017309,22821.8304978,3.49972196106,162,158,148
-44088.7817818,22813.0957092,3.36517125791,163,156,144
-44036.3855983,22855.7973377,3.29905189991,130,107,102
-44047.2117015,22810.4686796,4.33142411075,182,178,169
-44077.4654637,22804.2471874,3.38952639445,152,153,157
-44032.6026564,22857.0474958,2.66437184337,145,147,128
-44095.0698931,22817.5215924,3.61163402321,138,141,148
-44069.2355167,22819.9747732,3.4351965952,148,149,135
-44082.524539,22796.7008061,3.74598714595,110,110,99
-44079.9397606,22821.8922317,4.30140266546,78,87,108
-44062.905163,22831.9275354,3.93366256271,155,154,150
-44068.6348125,22808.6340801,3.51646359895,166,163,154
-44084.9858457,22819.3854384,3.99281888743,91,95,104
-44010.6633459,22814.7840794,4.9016611527,167,163,152
-44069.8752115,22816.1967003,4.42757482902,122,114,113
-44090.6748739,22811.8406835,3.98225498901,161,155,142
-44029.4902881,22842.5505541,3.22916424083,142,137,122
-44021.9455333,22836.8615194,3.43516096514,112,111,91
-44081.8426029,22816.8575255,3.36368375188,156,155,144
-44095.7550803,22796.1049793,3.20513867402,141,141,140
-44037.6487443,22854.5406887,3.28389160248,115,74,74
-44038.3144374,22840.6834518,3.27086396975,144,142,137
-44079.3049412,22823.7804531,3.96834123783,141,144,148
-44048.4959703,22801.0227066,4.25830063006,166,160,149
-44090.0644263,22804.2796819,3.36231360846,163,161,159
-44033.3625913,22806.6532472,4.13037075624,163,159,149
-44032.092949,22810.4296856,4.47446970238,164,158,143
-44027.0566086,22809.1567951,3.7025427378,144,137,123
-44036.4847106,22817.3704911,4.00171424678,173,170,163
-44035.2703072,22799.7286923,3.85942537127,157,148,135
-44024.5709334,22795.921385,3.57160294603,142,134,121
-44064.2609195,22794.7638453,3.72878079318,171,171,167
-44079.3634312,22801.1023201,3.61618928674,120,118,120
-44067.4122874,22794.1420193,4.25678191492,160,157,154
-44024.5855557,22790.2518511,3.53545184746,164,156,145
-44073.083443,22793.5266949,3.70300352504,164,159,153
-44049.1291688,22799.764435,4.21077163647,166,161,149
-44020.1726693,22791.5003738,3.56667567708,145,136,121
-44016.918958,22831.8089236,4.81284695264,64,92,52
-44018.8429122,22818.5848947,3.8259152842,164,161,154
-44028.9675725,22800.9723428,3.52683523004,170,162,150
-44035.7637712,22852.6459763,2.77922537549,137,130,116
-44063.5627325,22821.2200423,3.92600265771,104,125,130
-44061.6858853,22816.1755844,3.49203269814,155,153,139
-44062.2394731,22845.7847747,3.58780508082,0,0,0
-44061.6371451,22835.0740274,4.03917730887,150,144,131
-44050.2347184,22859.6127481,4.99812061547,0,0,0
-44091.9948877,22788.5358511,3.60898529522,169,168,164
-44014.506385,22790.2258556,3.55946489392,161,157,145
-44093.8554874,22799.8797928,3.3591609674,163,164,166
-44071.1042394,22828.1689727,3.46064691689,138,141,132
-44069.8183454,22838.2448955,3.56278139508,1,1,1
-44020.0556878,22836.856646,3.36437137739,126,120,120
-44071.825173,22792.8934971,3.70788438783,164,160,155
-44084.4160081,22796.0757341,3.27744525753,174,172,170
-44028.3213789,22807.2702008,3.6357730661,136,128,115
-44096.9727353,22812.4868809,3.44073051999,124,128,134
-44074.9586645,22799.2011016,4.06742214888,163,161,156
-44029.4984166,22839.4008051,3.88599276754,76,89,60
-44105.816378,22803.0604027,4.02108844092,0,0,0
-44089.4052273,22815.6171242,3.89943765479,126,133,141
-44044.7471499,22789.0439452,3.73382751971,177,170,160
-44064.2365487,22804.213067,3.73047561944,171,167,158
-44051.6652074,22793.4714541,3.80639507022,170,163,155
-44061.0023203,22836.9622518,3.46731839951,153,149,136
-44093.2141686,22804.2878052,3.46507041993,164,163,163
-44087.5153834,22815.61225,3.91440411605,102,105,116
-44022.5299797,22854.5017073,2.27992296121,55,69,88
-44066.7254728,22816.1885787,4.07100253143,86,97,101
-44046.5541306,22821.1761797,3.19082889202,163,159,148
-44020.0378169,22843.7860754,3.4896380629,145,146,144
-44064.1390652,22842.0099613,3.54465267759,56,58,62
-44012.4849254,22841.2467974,2.27770840002,152,147,139
-44107.712722,22800.5454846,3.76202812261,0,0,0
-44020.7311297,22819.2197199,3.53654041107,169,168,162
-44067.3326758,22825.0094777,4.01769307823,161,165,167
-44010.0951444,22790.8444261,5.5964690599,167,161,148
-44078.6766129,22823.1488792,3.95143082369,135,135,140
-44049.1275442,22800.3943841,4.24542911641,167,160,148
-44069.8329678,22832.5753605,3.46121927024,146,147,150
-44064.2722926,22790.3542081,3.7667577414,159,159,161
-44047.2328227,22802.2793535,4.29417599528,172,167,155
-44013.7903244,22823.6114868,3.32543770206,127,123,107
-44051.0076402,22804.1789453,4.37472700667,164,159,147
-44025.7495938,22827.4220431,3.52051534113,172,168,158
-44050.3663178,22808.5869594,4.33912736418,170,166,156
-44039.5077175,22866.5145878,2.75286445236,0,0,0
-44038.3859304,22812.9657274,4.16103296797,169,165,157
-44030.7794293,22831.2147356,3.17525437741,167,164,155
-44042.7533167,22829.3557619,3.0679860922,174,170,164
-44050.2997005,22834.4148388,3.40254951193,117,121,127
-44027.6670603,22816.7177968,3.83590657298,167,163,153
-44044.0002201,22834.3985901,3.58004629831,167,165,157
-44040.2042813,22840.6883261,3.26546106908,95,93,64
-44059.7944168,22816.8006592,3.53763126385,166,162,150
-44011.2932992,22814.7857012,5.4157874508,158,153,142
-44062.9912727,22798.5402838,3.72121104368,175,172,165
-44051.5027357,22856.4662695,3.87100341176,0,0,0
-44067.3960393,22800.4415029,3.6655975449,175,174,169
-44047.1093398,22850.1554249,3.3737862135,125,95,89
-44057.8184627,22850.1830431,3.55385851327,0,0,0
-44034.6111151,22811.0661333,4.17100220897,168,161,150
-44044.5603058,22861.4879893,3.44863992549,85,82,75
-44059.0848564,22847.6664952,3.56858942931,61,62,64
-44027.6053209,22840.6558264,3.80741504242,91,99,61
-44059.2343314,22789.7112618,3.90040365533,171,167,157
-44037.0642876,22836.9005161,3.06115791278,148,144,132
-44064.2089281,22814.9221884,3.51205017012,161,158,149
-44098.2407488,22809.340388,3.77983155765,112,115,126
-44025.6797247,22854.5098251,2.76743012075,132,139,108
-44030.7891785,22827.4350426,3.29108789915,174,170,160
-44083.0895025,22821.9003536,4.551228649,130,148,165
-44015.6070425,22851.9640505,1.83804204485,46,55,75
-44058.5637651,22805.4583391,4.19167071061,125,130,134
-44040.7546168,22871.5574237,2.80313865149,0,0,0
-44071.7471864,22823.1310108,3.45556684719,129,132,113
-44090.0286817,22818.1385429,3.76535280397,140,143,150
-44041.4381866,22850.7707406,4.0141406069,146,141,129
-44061.0835573,22805.4648393,3.88457700899,159,152,134
-44088.7736573,22816.2454455,3.80783677624,119,123,133
-44035.1273284,22855.1641426,3.3138171317,101,90,87
-44012.4702935,22846.9163442,1.3475542911,47,61,83
-44038.332307,22833.754028,2.89876122545,167,166,158
-44068.6088183,22818.7132428,4.58767343974,174,175,169
-44057.2518772,22825.6134357,3.42444412632,138,140,140
-44043.3816418,22829.9873313,3.18229480495,175,172,164
-44061.650142,22830.0344444,3.65688261033,159,160,160
-44031.4613762,22811.0580087,4.36584304816,151,145,127
-44037.0009213,22861.4685026,2.68440692852,128,130,106
-44048.489472,22803.5424991,4.3681453573,173,169,159
-44057.8477075,22838.8439721,3.48160334639,153,134,116
-44053.3877045,22858.3609906,3.62838926536,0,0,0
-44022.0283951,22804.7341607,3.56358068495,170,163,149
-44047.804277,22824.9591174,3.18743201759,152,146,134
-44071.1497315,22810.5304229,3.53605032014,114,115,114
-44069.222519,22825.0143557,3.48716422596,146,149,151
-44050.9166516,22839.4560511,3.31016172493,132,116,100
-44024.5108188,22819.2294682,3.55559715383,173,170,162
-44052.7512564,22860.879163,3.62886133689,0,0,0
-44057.8298358,22845.7734019,3.55609941904,100,100,103
-44038.3696821,22819.2652092,3.98223298202,183,179,173
-44010.6731014,22811.0043868,5.58807251411,167,163,154
-44038.2445713,22867.7712371,2.74995167695,17,22,29
-44037.6568677,22851.3909464,3.24746040203,128,126,116
-44027.74017,22788.3701298,3.49042171217,168,164,153
-44038.3258088,22836.2738167,3.01132532999,163,160,151
-44029.5910228,22803.4937609,3.51711883972,153,145,133
-44057.2827473,22813.6444213,3.59579899313,167,163,151
-44028.8099689,22862.0773259,2.74631741913,47,60,80
-44078.0645395,22816.2178276,3.41403524094,128,124,111
-44057.3331142,22794.1160249,3.78220511266,165,166,162
-44009.9748855,22837.4606053,2.75982409415,130,127,120
-44034.5217514,22845.7132874,3.54879340771,141,135,117
-44037.6926115,22837.5320883,3.25827199131,156,149,134
-44065.4590743,22818.7051264,3.42221136431,152,160,162
-44064.2657937,22792.8740004,3.72827029135,171,170,166
-44048.4797237,22807.3221886,4.37068911667,150,141,127
-44042.2062373,22797.2267723,4.07724596567,168,162,150
-44012.5856862,22802.1899911,5.07682640846,173,168,156
-44062.2345989,22847.6746186,3.58881195414,0,0,0
-44061.6940093,22813.0258449,3.62914221762,169,164,146
-44057.9403184,22802.9369236,4.12935752922,147,138,126
-44043.4450127,22805.4193446,4.49678404058,175,171,161
-44016.888065,22843.7779636,2.33075757398,154,149,141
-44069.8735869,22816.826649,4.50193848566,108,125,128
-44081.8507264,22813.7077866,3.36751870134,153,154,149
-44016.9888095,22804.7211628,3.60648113395,159,147,129
-44049.0251828,22840.0811264,3.2909343947,124,123,102
-44019.4874896,22812.9169836,4.5718809376,170,170,162
-44037.7868507,22800.9950868,4.15267561225,121,119,111
-44060.4617351,22802.3134747,3.72738000881,166,162,153
-44083.0878779,22822.530304,4.37393251641,138,169,179
-44064.1618121,22833.1906829,3.98843710348,141,139,128
-44093.8522379,22801.1396894,3.40169043536,165,166,170
-44050.9393978,22830.6367758,3.34901892131,161,160,147
-44093.8473638,22803.0295354,3.38858369699,165,164,162
-44026.9396224,22854.5130732,2.88697720353,117,127,89
-44059.7326773,22840.7386901,3.50291086606,152,154,156
-44061.731378,22798.5370343,3.73987918237,176,173,166
-44018.8802782,22804.0960879,3.55124480382,155,143,126
-44043.9368553,22858.9665754,3.42674572006,136,133,125
-44046.0037949,22790.3070914,3.69211283911,179,172,164
-44024.4961941,22824.899002,3.29449862588,160,156,143
-44022.0560155,22794.0250411,3.59246858987,137,127,114
-44015.6850474,22821.726514,3.74778793696,135,128,109
-44065.4379545,22826.894449,4.31150069513,152,153,154
-44057.919196,22811.1262499,3.78377738507,151,143,127
-44062.3028368,22821.2167959,3.47612028553,98,100,96
-44055.433522,22797.8908396,3.7778286523,171,167,158
-44081.8198562,22825.6767947,4.11637097941,139,142,147
-44036.9862993,22867.1380343,2.76437092147,55,64,78
-44059.2115849,22798.5305354,3.74213111173,175,170,162
-44071.1286105,22818.7197459,3.90213202896,145,148,121
-44095.7680772,22791.065392,3.4535874348,147,153,160
-44061.1030536,22797.9054622,3.74753154186,176,173,167
-44069.9109546,22802.3378454,3.73735167816,170,171,168
-44055.3847798,22816.7892858,3.59778781852,164,160,149
-44080.6558164,22788.5066058,3.75595141231,150,146,143
-44037.6991084,22835.0122979,2.9276590403,168,167,161
-44033.9421682,22826.1832719,3.22795026029,158,154,143
-44043.9449812,22855.8168274,3.87450734227,147,143,134
-44047.2182004,22807.9488867,4.32515045303,180,173,163
-44035.7524015,22857.0556115,3.30203051014,153,149,139
-44078.0336698,22828.186842,3.79162575966,137,142,148
-44057.8915748,22821.8353723,3.4402015002,161,158,148
-44030.7030645,22860.822309,2.74900611632,49,62,86
-44054.0566432,22843.2438596,3.62703690826,172,167,153
-44091.9542703,22804.284556,3.40129391293,166,166,164
-44068.6396868,22806.7442336,3.65000437472,175,171,161
-44018.8835278,22802.8361931,3.57460681707,155,144,128
-44075.58861,22799.2027271,3.82689921884,162,158,152
-44066.790461,22790.9906543,3.76904600509,157,157,155
-44031.3492586,22854.5244487,2.67791000429,138,138,113
-44018.2373389,22809.1340462,4.2793969111,156,151,139
-44033.3593423,22807.9131435,4.18499650989,174,170,162
-44075.611356,22790.3834532,3.69537,155,151,146
-44046.541133,22826.2157664,3.21385982493,166,161,150
-44058.4581566,22846.404972,3.55999217498,82,82,85
-44016.2695009,22839.3666901,3.46013042531,127,139,106
-44013.7643437,22833.6906474,4.81318515825,82,112,36
-44023.903617,22810.4085685,3.62101091797,147,140,123
-44026.3909128,22823.0140316,3.35869874569,167,162,152
-44074.9050488,22819.9893935,3.78668918867,136,118,101
-44058.5783861,22799.7888075,3.67462678601,171,167,158
-44033.2179816,22862.7186528,2.69735168036,47,60,79
-44091.9607693,22801.7647646,3.36296855448,164,165,167
-44056.032603,22809.861477,4.22306994786,160,157,143
-44035.2361899,22812.9576039,4.13560237203,163,159,149
-44018.1690975,22835.5918719,3.93599650879,81,109,49
-44062.2264754,22850.8243608,3.62670743656,0,0,0
-44038.872894,22868.4028072,2.75681268146,17,23,30
-44043.4498856,22803.5295019,4.24235267723,178,174,164
-44043.4645072,22797.859969,4.09101162889,176,172,161
-44087.5170086,22814.9823024,3.62976940626,112,113,115
-44048.3513724,22857.0880887,4.7096130659,35,34,31
-44096.3427824,22812.4852564,3.40021906662,120,123,133
-44076.1422012,22828.8119179,3.69670053711,134,140,147
-44011.2624133,22826.7547267,3.83511566407,91,86,78
-44025.1960078,22797.8128537,3.58953496703,169,161,149
-44052.7886247,22846.3903494,3.57669809792,149,140,133
-44053.4429443,22836.9427555,3.42386837018,52,72,86
-44093.839239,22806.1792743,3.8263160071,152,155,160
-44044.0278383,22823.6894743,3.18239613968,160,156,144
-44050.9605193,22822.4474502,3.36889108265,150,144,132
-44030.235593,22797.8258515,3.56104060375,171,166,154
-44080.5794547,22818.1141735,3.54341451317,150,152,151
-44070.5019103,22817.4582291,3.47714167728,146,146,137
-44022.0478918,22797.1747828,3.56886065137,143,130,116
-44046.6239983,22794.0884037,4.20059806578,171,164,152
-44070.5295308,22806.7491076,3.67784541944,158,153,144
-44055.9919825,22825.6101862,3.44311070157,115,116,99
-44024.5563111,22801.5909189,3.58072807758,161,155,142
-44066.692978,22828.787546,3.83346828157,143,136,113
-44038.9476348,22839.4251807,3.38285690217,128,121,111
-44026.3990377,22819.8642917,3.52811688106,164,160,147
-44063.0140189,22789.7210103,3.78716004315,166,166,163
-44057.3054954,22804.8251422,4.23928144781,65,68,76
-44058.4874036,22835.0659017,4.27080487216,163,165,153
-44096.3980226,22791.0670167,3.46750108571,143,149,155
-44047.7457886,22847.6372509,3.51746639352,155,148,143
-44015.0729813,22814.7954529,4.80751191162,173,170,163
-44052.843865,22824.9721127,3.53461426058,174,170,161
-44021.3448282,22825.5208281,3.23154743437,143,136,123
-44047.0817224,22860.8645359,3.97892500106,0,0,0
-44072.3868804,22819.3529449,3.85158844829,140,140,138
-44082.5017932,22805.5200818,3.40891346205,162,163,159
-44047.1840762,22821.1778043,3.20803762982,162,157,146
-44084.9809715,22821.2752821,4.02337509968,150,151,156
-44038.265696,22859.5818997,3.32052676418,158,155,147
-44025.6829736,22853.2499274,2.68869426953,125,136,98
-44029.6186436,22792.7846411,3.58868941606,173,168,157
-44085.6580347,22803.0084141,3.38858632778,172,172,169
-44069.233892,22820.6047188,3.41974518131,155,155,143
-44062.3223337,22813.6574194,3.54778698717,176,172,161
-44023.3256599,22790.2486015,3.63094170912,158,151,139
-44098.8869499,22803.0425328,3.49985169631,158,159,165
-44019.5345974,22794.6484907,3.56084854979,140,131,113
-44045.9160574,22824.3242981,3.13957006851,159,154,140
-44060.4503636,22806.7231091,4.36388818752,177,169,156
-44065.3957105,22843.2731051,3.57208320214,0,0,0
-44023.2492968,22819.8561684,3.48512237641,170,163,153
-44054.7694553,22811.1181238,4.26575693835,151,146,133
-44045.303985,22817.3932363,4.13094892773,155,151,139
-44083.77144,22801.7436428,3.48135142693,67,72,83
-44050.4150594,22789.6885149,4.3494629717,100,108,114
-44050.9995171,22807.328687,4.48717683325,167,163,151
-44073.0444496,22808.6454531,3.53758542548,139,138,137
-44016.8848153,22845.0378627,2.30830730918,151,148,139
-44015.639554,22839.3650639,3.62024224767,96,121,76
-44071.1058641,22827.5390234,3.46501981772,131,137,125
-44022.0706381,22788.3555073,3.59958242391,154,148,136
-44068.6868038,22788.4757362,3.805459052,153,154,158
-44010.0252619,22817.9322037,3.7334324462,126,130,106
-44047.726292,22855.1966346,3.51651527923,140,130,124
-44101.4229865,22796.7495484,3.49347053396,14,14,14
-44034.6403577,22799.7270677,3.81624813649,164,156,145
-44078.6668646,22826.9285717,3.82731244774,141,144,150
-44013.1798888,22816.0504727,4.90423376949,134,131,117
-44037.6714914,22845.7214119,3.46552317798,133,132,107
-44097.0036052,22800.5178657,3.38519679316,157,156,157
-44037.0610404,22838.1604116,3.40154985527,154,151,140
-44042.7500673,22830.6156566,3.08782559476,174,170,162
-44061.0981793,22799.7953063,3.7273607228,171,166,157
-44026.9493707,22850.7333848,2.8781934917,134,129,104
-44053.5323076,22802.2956,4.48295203361,169,164,153
-44069.8378419,22830.6855166,3.4584109145,146,144,140
-44040.8553502,22832.5006277,2.9559644143,178,175,167
-44083.7161988,22823.1618761,4.08278957574,156,178,186
-44086.9049355,22808.0512485,3.34412092145,132,130,126
-44093.2482878,22791.0588931,3.44764884036,163,164,174
-44040.2010314,22841.9482256,3.173533221,134,128,113
-44020.122307,22811.0287656,4.01142842588,163,159,148
-44031.3427599,22857.0442459,2.69584964519,114,124,89
-44059.779794,22822.4701958,3.43430279946,150,150,147
-44064.2073033,22815.5521377,3.5015556418,146,146,128
-44093.2287916,22798.6182717,3.29226261532,166,166,167
-44048.4732246,22809.8419799,4.32181535525,173,168,157
-44054.0517682,22845.1337098,3.39746151724,144,140,138
-44100.765419,22807.457042,3.99963845846,113,118,140
-44045.3218578,22810.4638056,4.30742657415,181,177,168
-44026.9282471,22858.9227185,2.59257609469,50,63,86
-44055.401029,22810.4898015,4.2180781998,161,157,144
-44072.4534937,22793.5250701,3.69892939141,167,163,157
-44082.5375368,22791.6612208,3.64162353492,164,164,166
-44024.4880696,22828.0487456,3.17060080583,167,164,154
-44079.2903187,22829.4499896,3.84313132594,138,141,147
-44047.2571919,22792.8301324,3.9544176243,180,173,163
-44071.1724788,22801.7111437,4.82038814563,165,163,159
-44098.9145703,22792.3334122,3.45374462963,119,120,120
-44037.1747725,22794.0640341,3.69177243326,158,148,135
-44030.0666163,22863.340474,2.75454374289,46,58,79
-44012.5060763,22833.0574455,5.20871427475,76,115,42
-44070.5002859,22818.0881771,3.69174076244,135,137,119
-44039.5515881,22849.5059759,3.30114898441,103,101,89
-44046.4534018,22860.232958,3.99586334613,0,0,0
-44073.6743988,22808.6470786,3.35675868446,154,157,160
-44016.3393785,22812.2789085,5.01411698232,174,172,162
-44071.7650585,22816.2015787,3.69996093002,107,114,107
-44070.5441537,22801.0795721,4.15001580413,168,167,162
-44068.0454815,22792.8837487,3.7268394125,160,158,155
-44023.2038056,22837.4947167,3.59058521375,85,87,70
-44091.9152764,22819.4033123,3.6872534701,140,142,149
-44031.4808705,22803.4986331,4.03614651061,149,144,131
-44064.8778709,22799.8050547,3.68586100721,172,171,165
-44018.1577188,22840.0015149,3.31710377959,123,117,114
-44055.4189013,22803.5603713,4.29981439216,146,140,125
-44013.1425086,22830.5392895,3.74052517584,47,67,33
-44051.0433833,22790.3200882,4.20968502532,132,133,137
-44030.1787334,22819.8740348,4.32854281191,168,165,157
-44094.5033051,22792.9519879,3.26903099304,141,144,146
-44069.3021305,22794.1468948,3.69746122081,145,142,137
-44048.482974,22806.0622913,4.56668635748,176,172,163
-44064.7982597,22830.6725169,3.69514126436,154,152,144
-44051.5059855,22855.2063775,3.96688066743,0,0,0
-44090.0319314,22816.8786451,3.6485152223,140,143,150
-44022.6680918,22800.9560955,3.57670411846,149,139,125
-44050.3061992,22831.8950459,3.35703337891,134,144,123
-44045.2861081,22824.3226733,3.14332509779,150,142,129
-44013.7757073,22829.2810185,3.86493145845,83,84,68
-44026.3779152,22828.0536183,3.36885793496,169,166,154
-44038.9866287,22824.3064236,3.49754767458,151,149,138
-44015.1135888,22799.0467544,3.72401229771,156,148,132
-44054.6768438,22847.0251774,3.50753131017,142,136,134
-44025.6911049,22850.1001812,3.65414562532,161,162,156
-44057.2388802,22830.6530205,3.66252905545,112,174,166
-44047.1905771,22818.6580081,3.65558969188,145,141,130
-44078.6977345,22814.9595576,3.39796850689,134,142,139
-44040.2351492,22828.7193146,2.95754038025,161,160,151
-44022.5641138,22841.2727756,4.04763114506,78,107,36
-44084.3770147,22811.1944901,3.39352148287,165,164,157
-44029.5406603,22823.0221506,4.02177426817,148,140,125
-44087.5771235,22791.674219,3.45679820098,146,148,153
-44042.0437616,22860.2215929,3.3715795298,140,137,129
-44064.8453761,22812.40402,3.48099670731,122,121,124
-44048.3676148,22850.7886169,3.62381767804,144,109,107
-44031.430505,22823.027024,4.1381289368,166,162,152
-44078.7416017,22797.9509544,3.74648891604,129,127,122
-44020.7262545,22821.1095647,3.41469671859,138,129,117
-44064.8827451,22797.9152106,3.70309177165,172,169,162
-44020.6612616,22846.3074954,2.94333445946,121,120,115
-44012.5450582,22817.9387004,4.09409347513,153,147,135
-44021.2928394,22845.6791689,3.48629034223,143,144,141
-44095.7632034,22792.9552372,3.35180316612,166,168,174
-44079.9495094,22818.1125493,3.44757798259,124,125,123
-44032.6221551,22849.4881078,2.95129364179,141,134,112
-44027.7369206,22789.6300266,3.49079868339,163,159,147
-44070.5230317,22809.2689017,3.50418312095,95,91,91
-44013.8504469,22800.3034002,4.11547995834,172,165,150
-44036.5220793,22802.8816834,4.04035474532,149,144,133
-44063.598476,22807.3611846,3.75200678316,159,152,134
-44043.4710063,22795.3401768,4.13513235418,165,158,147
-44028.9578239,22804.7520329,3.49277643268,152,143,131
-44090.0871723,22795.4604079,3.42339461127,158,155,136
-44041.3878134,22870.2991503,2.76103292123,0,0,0
-44047.0703473,22865.2741752,3.53192986703,0,0,0
-44041.488547,22831.2423576,2.95800390151,173,170,162
-44065.4720721,22813.6655435,3.45185127234,172,165,156
-44030.8769157,22793.4178388,3.61531942454,175,168,156
-44067.9723686,22821.2314187,3.41309424398,138,141,123
-44041.4463069,22847.6210049,3.40429724644,130,127,99
-44057.8574578,22835.0642781,4.14530916862,172,168,162
-44089.3971039,22818.7668636,3.77098564262,140,144,150
-44038.9492603,22838.7952301,3.52459790391,143,142,127
-44013.1262721,22836.8387609,4.80607717207,66,104,36
-44075.5479919,22814.9514329,3.59363763407,158,152,136
-44069.9239523,22797.2982612,3.67209204745,160,156,150
-44088.1339634,22820.0235116,3.92827472879,143,146,153
-44028.8294689,22854.5179438,3.1851647174,120,125,90
-44098.9064474,22795.4831543,3.27968224916,146,146,145
-44091.9867637,22791.6855913,3.80747756073,174,167,162
-44044.6171701,22839.4398042,3.27339581669,137,135,123
-44040.8326059,22841.3199001,3.2634595483,117,112,93
-44015.6801725,22823.6163585,3.67341127707,170,164,150
-44073.692271,22801.7176466,3.6998400418,176,173,169
-44039.6052017,22828.71769,2.93815669897,159,159,150
-44062.2573447,22838.8553451,3.49191255075,132,133,139
-44041.4138122,22860.2199683,3.35935537063,156,153,141
-44013.7594579,22835.5805016,3.63273901042,132,128,116
-44052.8081227,22838.83097,3.93594913112,120,127,98
-44058.5751367,22801.0487041,3.6816681825,169,166,157
-44030.8038087,22821.7655032,4.35466679642,164,160,150
-44020.6905112,22834.9684256,3.47461334627,78,91,57
-44049.6437561,22844.4923826,3.49742342373,185,184,180
-44060.451988,22806.0931624,4.22452534972,148,135,119
-44085.6872795,22791.6693448,3.46563542473,122,119,119
-44081.9027172,22793.549441,3.63583795906,108,104,107
-44016.2727574,22838.1067883,4.20972098311,89,115,49
-44080.5615826,22825.0435978,3.88273142478,139,143,146
-44046.4485252,22862.1228084,3.48938202504,0,0,0
-44033.3788358,22800.3537678,3.73451953163,143,137,125
-44013.2205027,22800.3017742,4.49428880419,169,163,149
-44010.0317657,22815.4124079,4.19958352799,132,123,112
-44063.6374691,22792.2424273,3.7368268062,169,169,165
-44064.2203012,22810.5125507,3.5927447821,165,160,148
-44054.7402078,22822.4571976,3.50716168242,170,166,156
-44036.4505841,22830.5994115,2.83464405557,164,161,151
-44060.497479,22788.4546148,3.79567011464,173,173,168
-44050.3516945,22814.2564918,4.14919019512,147,140,124
-44059.0751082,22851.4461828,3.61155998523,0,0,0
-44038.3583078,22823.6748477,3.77906758733,160,157,148
-44096.337908,22814.3750999,3.49192115279,142,143,150
-44072.3625096,22828.8021681,3.86863886565,137,131,116
-44010.59833,22839.982028,2.29108072399,137,132,124
-44091.319443,22806.1727772,3.39637265833,158,158,159
-44010.0935225,22791.4743737,5.86427567719,168,163,152
-44038.8923931,22860.8434249,3.17211625225,121,120,106
-44085.6612829,22801.7485145,4.19317856059,183,183,184
-44024.406827,22859.5461678,2.37461458679,49,63,86
-44071.8073016,22799.8229244,4.35614124546,170,168,163
-44013.0921232,22850.0677073,1.82617473934,42,54,76
-44049.0722995,22821.8126274,3.26780212188,159,153,141
-44039.0256282,22809.1876607,4.55029400424,171,165,153
-44043.4271401,22812.348775,4.35124444113,175,172,164
-44018.7616551,22850.0823333,1.5082185986,59,70,89
-44057.2681247,22819.3139535,3.55242869055,172,167,157
-44064.8746214,22801.0649514,3.67282452241,168,169,163
-44056.6934165,22797.8940893,3.72549337575,172,168,160
-44055.4513954,22790.9614085,4.2253186971,183,184,179
-44078.0726631,22813.0680888,3.39193753547,162,159,154
-44037.0870327,22828.0812421,2.90617780378,165,161,153
-44052.8649867,22816.7827869,3.61331185353,152,146,134
-44023.2200498,22831.1952384,3.23515852135,127,122,108
-44062.9441554,22816.8087831,3.49174962709,136,135,117
-44040.8001145,22853.9188608,3.79208902162,148,118,115
-44073.0282027,22814.9449318,3.97743575408,127,123,107
-44084.3997608,22802.375215,3.45541468249,133,135,147
-44074.937543,22807.3904316,3.29332660841,156,156,157
-44071.7634337,22816.8315281,3.67584126295,145,143,139
-44040.2920216,22806.6711187,4.22479477373,156,150,135
-44016.9270747,22828.6591912,4.07808831286,93,110,62
-44023.8516231,22830.5669136,3.26588202446,152,148,136
-44051.0173879,22800.3992583,4.22206592448,171,167,156
-44077.441093,22813.6964133,3.41663995941,145,147,129
-44051.6197171,22811.1100003,4.26635913614,152,148,135
-44052.2464127,22812.3715219,4.18974109812,155,151,140
-44040.8813493,22822.4214532,3.58602622162,156,154,142
-44072.3608847,22829.4321196,3.59544681565,119,120,120
-44086.9016861,22809.311145,3.37095118906,147,144,141
-44043.2922815,22864.6344881,3.02973329768,0,0,0
-44078.0369192,22826.9269472,3.81110021852,140,143,149
-44014.4186482,22824.2430605,3.36333468551,140,136,119
-44083.1642404,22792.922742,3.68386727803,154,149,144
-44041.5681652,22800.3748875,4.21936216971,141,135,122
-44022.5966039,22828.6738179,3.54197408345,163,163,155
-44044.6366689,22831.8804203,3.71724543468,172,169,162
-44037.002546,22860.8385572,2.6798236524,137,139,121
-44028.358747,22792.7813917,3.59489511288,174,168,156
-44040.2335242,22829.3492643,2.91000989236,155,154,147
-44073.6224079,22828.8054194,3.64230144873,132,137,140
-44023.2964145,22801.5876695,3.57448640541,155,148,133
-44048.3611157,22853.3084069,3.57876348872,156,155,151
-44093.2434139,22792.9487383,3.34295288854,129,132,118
-44035.1045786,22863.9834251,2.74525063409,43,59,78
-44090.7203672,22794.202136,3.39034286147,156,153,129
-44095.7437066,22800.5146162,3.38228011066,161,162,164
-44029.5975218,22800.9739676,3.52978818767,169,162,151
-44027.6751845,22813.5680577,3.91150676946,172,168,156
-44039.4947201,22871.5541738,2.83080212907,0,0,0
-44046.4842685,22848.2639561,3.37362124204,133,127,115
-44047.141834,22837.5564585,3.32688738435,151,154,154
-44033.8983011,22843.1918722,3.27073685221,156,158,153
-44074.9342936,22808.6503273,3.51491927851,148,145,139
-44043.3767681,22831.8771746,3.27526459761,175,169,161
-44050.3874387,22800.3976336,4.22365808773,168,163,151
-44022.5446026,22848.8321737,2.33047367664,159,153,146
-44033.9177956,22835.6324986,2.96870055401,151,147,135
-44037.1845208,22790.2843453,3.70333443679,148,137,122
-44030.7859286,22828.6949417,3.22648336796,163,159,150
-44038.2689457,22858.3220008,3.34878038206,154,151,143
-44091.9932631,22789.1657993,3.6020899465,171,167,162
-44009.9635073,22841.8702479,2.27600328077,135,134,129
-44010.0789,22797.1439065,5.86128326464,165,160,147
-44019.4972306,22809.1372982,3.76392414675,170,166,154
-44042.8508031,22791.5588634,3.70197396992,140,132,118
-44044.5927998,22848.8890273,3.37459807459,113,88,86
-44085.664533,22800.4886194,3.76695056446,163,157,129
-44025.6943528,22848.8402849,3.45857999899,115,117,114
-44045.325107,22809.2039091,4.2832817809,174,171,160
-44039.6393274,22815.4887705,4.05759453594,177,174,165
-44070.4889125,22822.4978162,3.41377120408,146,147,142
-44043.9774751,22843.2178626,3.77639956077,36,47,48
-44011.2201459,22843.1334008,1.4352070577,141,142,142
-44018.8445381,22817.9549485,3.95125704129,169,168,163
-44031.3638816,22848.854915,2.76003627916,132,122,101
-44031.3362617,22859.5640343,2.80559383193,142,135,117
-44043.3085307,22858.3349977,3.41729060349,131,126,120
-44077.4215963,22821.2557882,3.60773866447,47,72,38
-44040.1474127,22862.7365251,2.67313452583,132,129,115
-44069.1786514,22842.022961,3.33825546455,0,0,0
-44036.5415737,22795.3223061,3.68058734346,164,154,139
-44023.1859364,22844.4241401,3.91347637323,65,96,28
-44042.7403221,22834.3953399,3.6624337587,173,171,165
-44046.4728972,22852.6735854,3.73543264591,116,104,99
-44064.8323783,22817.4436067,3.4660057862,81,85,94
-44054.7158366,22831.9064185,3.40088879167,140,150,136
-44055.9302437,22849.5482155,3.58789391385,60,59,61
-44074.346591,22792.2700476,3.72561719086,152,141,137
-44037.0399188,22846.3497338,3.35621214418,141,135,116
-44014.3601392,22846.9212177,1.41420792675,42,53,74
-44011.3095489,22808.4862207,5.65944330882,177,172,164
-44046.6256226,22793.4584556,4.11742159651,164,157,147
-44033.2391028,22854.5293228,2.67768975423,150,147,135
-44043.459634,22799.7498123,4.26690706782,154,146,133
-44038.4265475,22797.2170242,4.02752090309,174,167,156
-44081.9124653,22789.7697517,3.91159517706,159,161,166
-44040.8764729,22824.3112999,3.19943424085,151,150,142
-44070.4450453,22839.506415,3.56244586378,0,0,0
-44076.1454506,22827.5520189,3.75442221928,134,138,143
-44032.0831984,22814.209375,4.1416341485,161,155,143
-44039.0434979,22802.2582326,4.17863083128,159,152,140
-44027.0744789,22802.2273655,3.49456810538,168,162,150
-44100.1663379,22795.4864035,3.37326424301,81,81,81
-44090.6846234,22808.0609965,3.39213800828,68,71,79
-44051.5141074,22852.05664,3.53926250674,136,133,128
-44020.698636,22831.8186818,3.61643530067,106,107,80
-44023.224926,22829.3053924,3.48279941506,169,167,162
-44061.124175,22789.7161361,3.78994820343,165,164,159
-44038.9070164,22855.1738909,3.31174340781,118,78,81
-44057.8444579,22840.1038712,3.42760954619,165,158,145
-44029.4707879,22850.1099398,2.73544746486,125,124,96
-44067.3407985,22821.8597433,3.41003713945,121,131,112
-44096.354155,22808.0756183,3.54255770643,146,143,133
-44010.6422114,22822.9734117,3.64522723411,80,83,65
-44027.6036948,22841.2857772,3.64584722102,107,108,79
-44086.2717406,22809.3095203,3.37928823072,151,149,145
-44048.3822366,22845.1190865,3.48099545637,184,184,180
-44051.6489617,22799.7709339,4.19381612571,161,155,142
-44013.2367458,22794.0022939,4.09314435105,164,157,144
-44100.7979154,22794.8580797,3.45234208753,45,44,44
-44011.9216178,22815.4172777,4.95345151059,166,163,156
-44056.0553485,22801.0422039,4.05465463194,166,162,150
-44088.1697082,22806.1646538,3.35103870435,139,140,142
-44076.8647555,22792.9064947,3.73814852396,151,147,142
-44012.5466802,22817.3087529,3.81149574229,163,156,148
-44076.7786455,22826.2937484,3.82748978129,139,142,147
-44094.454561,22811.8504309,4.16941152889,108,112,124
-44030.8330546,22810.4264362,4.4876743907,171,167,156
-44013.166875,22821.0900689,3.30292686183,121,123,99
-44060.3804998,22833.8108837,4.0032912509,163,160,150
-44033.8934324,22845.0817117,4.08101932494,137,143,139
-44021.955281,22833.0818321,3.35869182299,123,122,98
-44024.4685793,22835.608119,3.94873787215,73,86,55
-44012.6116747,22792.1108238,4.38582325834,169,166,154
-44064.2300499,22806.7328601,3.7577548456,150,144,132
-44099.5428911,22792.9649853,3.43749116355,118,117,116
-44073.0347015,22812.42514,3.72540492249,150,140,128
-44088.1583346,22810.5742897,3.65955490341,172,177,180
-44056.6251775,22824.351916,3.45660221192,116,114,101
-44010.0057682,22825.4915776,3.99953820852,85,106,55
-44061.7216298,22802.316724,3.76580679255,170,166,157
-44056.0699701,22795.3726721,3.78832260203,162,159,152
-44041.3943129,22867.7793589,2.87379741405,0,0,0
-44090.0693005,22802.3898378,3.3780990827,167,168,170
-44020.752253,22811.0303916,3.75731294482,163,157,145
-44031.3330119,22860.8239337,2.75214802588,63,73,92
-44037.1552782,22801.6234115,4.06380247226,154,150,140
-44039.704314,22790.2908442,3.69597482002,160,151,138
-44033.2651038,22844.4501401,3.48114865949,118,108,95
-44014.3926676,22834.3222169,4.88641932809,47,72,34
-44017.6382545,22797.1634096,3.61489019303,142,132,115
-44074.9472914,22803.6107407,3.51754609504,132,132,132
-44058.4695295,22841.9953387,3.5479686067,145,144,146
-44088.1518363,22813.0940846,3.35142673909,166,160,151
-44052.9153548,22797.2543925,4.1031151171,176,172,162
-44031.3443846,22856.4142928,2.69053899716,124,131,101
-44046.45015,22861.4928631,3.48462854265,0,0,0
-44009.9992668,22828.0113725,3.76899610323,104,122,71
-44042.6460835,22870.9323529,2.76112161233,0,0,0
-44045.2357428,22843.8510658,3.33201265791,127,125,102
-44059.1222246,22833.1776898,3.44175811958,156,151,132
-44034.4827524,22860.8320583,2.67771380143,120,125,93
-44041.5502935,22807.3043173,4.2392795944,166,162,151
-44022.6437207,22810.4053196,3.53034218957,159,154,140
-44036.5123323,22806.6613703,4.23728163132,118,115,101
-44033.3707153,22803.5035066,4.18084672412,139,133,121
-44036.4603332,22826.8197221,2.96164025797,163,159,150
-44049.0203086,22841.9709706,3.2787122471,108,95,78
-44052.9316031,22790.9549092,4.39819404895,177,177,176
-44060.4016201,22825.6215583,3.57730774424,101,121,83
-44088.1469613,22814.9839259,3.84460128052,95,98,109
-44037.6747413,22844.4615127,3.51932852085,108,106,106
-44082.5196651,22798.590651,3.43461847031,171,167,160
-44045.3608512,22795.3450503,4.36505550972,170,162,151
-44053.4770636,22823.7138427,3.52604364319,140,136,126
-44013.8455736,22802.1932438,4.20632353469,175,169,156
-44068.5860708,22827.5325247,3.42893083324,143,145,139
-44040.2822734,22810.4508082,4.22922378642,169,165,154
-44074.3400921,22794.7898408,3.76481262656,180,179,175
-44011.8549771,22841.2451725,2.28888545811,151,145,138
-44099.5087708,22806.1938969,3.76341486004,164,159,154
-44046.5167628,22835.6649896,3.34679366108,164,163,153
-44098.9226934,22789.1836713,3.5980887278,16,17,18
-44011.8809988,22831.1659802,4.85348432194,86,122,57
-44018.2259691,22813.543683,4.63861690793,169,166,158
-44016.3588617,22804.7195381,3.59941795989,158,146,128
-44097.6384249,22798.6296445,3.3522884496,157,157,157
-44035.1224542,22857.0539867,3.31210376493,154,151,143
-44094.4415648,22816.8900184,3.60645488869,138,141,148
-44037.8014704,22795.3255554,3.70509897321,154,145,131
-44057.953315,22797.8973386,3.75015467512,175,171,164
-44061.0803082,22806.7247353,4.02511354704,146,138,120
-44057.8558313,22835.6942328,3.53144524439,166,163,156
-44062.9165362,22827.5178978,4.00321336302,127,158,161
-44028.9935683,22790.8931715,3.55809246209,175,169,159
-44030.2599632,22788.3766287,3.48515190654,173,169,157
-44043.3264074,22851.4055566,4.32868084724,157,156,150
-44041.5551691,22805.4144705,4.50510597932,175,172,163
-44057.2941221,22809.2347794,4.1542604518,148,140,126
-44045.9924249,22794.716727,4.3169685033,171,163,151
-44040.2075309,22839.4284311,3.28577478321,141,137,123
-44098.2553722,22803.6708554,3.47630003116,155,155,159
-44090.0757993,22799.8700444,3.38529996216,164,162,160
-44061.0413135,22821.8434956,3.47307179749,85,90,96
-44072.9745867,22835.7332263,3.51294545139,46,46,49
-44014.4446596,22814.163878,4.99426361687,171,169,162
-44036.4928354,22814.2207478,4.18626081054,167,165,153
-44057.862331,22833.1744371,3.83230330333,162,155,138
-44057.2989962,22807.3449356,4.16336656854,131,128,118
-44097.6368002,22799.2595938,3.34290673504,158,158,160
-44083.0781299,22826.3099939,4.04648086801,134,137,143
-44030.16248,22826.1735217,3.47587266129,166,159,144
-44070.5409038,22802.3394702,3.74872033494,173,173,169
-44072.4145004,22808.6438284,3.50870490855,121,123,129
-44062.3645767,22797.2787643,3.73098927382,175,173,167
-44038.8793928,22865.8830175,2.75437232333,101,103,96
-44081.2565249,22799.8472988,3.2711315293,137,140,141
-44052.9007334,22802.9239248,4.4032646808,165,159,148
-44093.2271668,22799.2482209,3.30814236447,167,166,168
-44017.5033814,22849.4491328,1.30537240439,43,55,77
-44026.3389249,22843.1723708,3.74515632232,63,89,29
-44025.2171284,22789.6235276,3.50393175782,161,155,144
-44010.0268885,22817.3022535,3.90929086832,130,127,107
-44037.0252957,22852.0192746,3.27109958005,152,146,133
-44052.8617374,22818.0426852,3.6455407042,138,133,123
-44044.1139508,22790.3022172,3.65569275243,175,169,158
-44083.7958105,22792.2944184,3.72277014619,157,153,149
